x	y	z
-3.567626 8.112451 -0.318769
-5.218130 10.782436 -0.542484
-5.023546 9.486814 -0.590207
-4.921258 8.531938 -0.635731
-3.511422 7.996007 -0.633500
-3.522771 7.288004 -0.664798
-3.539295 6.693169 -0.693176
-3.571455 6.196795 -0.725370
-2.635110 6.011632 -0.718390
-2.706328 5.607164 -0.740546
-2.762211 5.227376 -0.760425
-2.815335 4.888408 -0.781270
-2.091255 4.777480 -0.765362
-2.174323 4.511554 -0.782916
-2.240458 4.245360 -0.797006
-2.297804 3.990758 -0.811738
-1.725229 3.948793 -0.795322
-1.806792 3.754986 -0.809693
-1.874352 3.557352 -0.821505
-1.902358 3.303560 -0.818367
-1.475423 3.387656 -0.825052
-1.541420 3.209636 -0.829818
-1.596226 3.030264 -0.833779
-1.242982 2.863373 -0.822236
-1.302370 2.717339 -0.824182
-1.380126 2.621686 -0.841675
-3.559499 8.161831 -0.320279
-5.153891 10.733555 -0.539227
-4.995811 9.504833 -0.590372
-4.873237 8.508894 -0.632896
-3.482095 7.995769 -0.632632
-3.501689 7.301474 -0.665044
-3.522446 6.711050 -0.693905
-3.549956 6.203405 -0.724866
-2.620617 6.028805 -0.719478
-2.689541 5.616335 -0.740664
-2.744778 5.233191 -0.760042
-2.798358 4.893582 -0.780721
-2.078952 4.789319 -0.766233
-2.163881 4.525335 -0.784151
-2.229254 4.255709 -0.797661
-2.285061 3.996934 -0.811564
-1.707242 3.940533 -0.792600
-1.799070 3.768485 -0.811410
-1.852078 3.541381 -0.816500
-1.899494 3.322113 -0.821516
-1.458058 3.376039 -0.821129
-1.530728 3.212591 -0.829364
-1.582870 3.027398 -0.831650
-1.352030 2.587542 -0.829377
-3.617745 8.365336 -0.327828
-5.120078 10.747513 -0.539136
-4.959237 9.505951 -0.589494
-4.843163 8.516865 -0.632381
-3.452408 7.994511 -0.631692
-3.483126 7.320282 -0.665780
-3.501380 6.720942 -0.693814
-3.531399 6.215132 -0.724967
-2.595813 6.022210 -0.717737
-2.669741 5.619179 -0.739955
-2.727336 5.238948 -0.759659
-2.779419 4.895253 -0.779624
-2.063858 4.794765 -0.766088
-2.152529 4.537308 -0.785078
-2.215277 4.260778 -0.797334
-2.269871 3.998787 -0.810523
-1.700579 3.958401 -0.795141
-1.784979 3.768664 -0.810265
-1.838044 3.540959 -0.815099
-1.897981 3.343229 -0.825294
-1.444235 3.372422 -0.819168
-1.517535 3.210229 -0.827548
-1.574022 3.033102 -0.831886
-1.344528 2.592532 -0.829651
-3.594427 8.381907 -0.328044
-5.078543 10.745106 -0.538231
-4.929132 9.519347 -0.589384
-4.816030 8.529945 -0.632252
-3.425902 8.000481 -0.631330
-3.442782 7.293080 -0.662343
-3.483488 6.736960 -0.694361
-3.510848 6.223338 -0.724664
-2.577325 6.030146 -0.717737
-2.654183 5.630936 -0.740427
-2.709885 5.244647 -0.759277
-2.763414 4.902032 -0.779349
-2.048750 4.800165 -0.765943
-2.133549 4.533163 -0.783225
-2.200838 4.264924 -0.796843
-2.253724 3.998869 -0.809134
-1.693437 3.975362 -0.797500
-1.769234 3.765237 -0.808358
-1.822685 3.537872 -0.813097
-1.890596 3.354147 -0.826553
-1.437315 3.384922 -0.821129
-1.499822 3.198116 -0.823236
-1.569159 3.046555 -0.834252
-1.617615 2.871954 -0.837858
-1.339649 2.602631 -0.831563
-3.572214 8.401171 -0.328367
-3.894962 8.306774 -0.415493
-4.891689 9.518439 -0.588396
-4.802525 8.567314 -0.633927
-3.400950 8.010036 -0.631258
-3.419123 7.300901 -0.662097
-3.460985 6.744071 -0.693997
-3.489308 6.229739 -0.724159
-2.559200 6.038940 -0.717846
-2.631427 5.627359 -0.738892
-2.692876 5.251172 -0.759021
-2.747395 4.908758 -0.779075
-2.036713 4.812806 -0.766959
-2.114616 4.528945 -0.781371
-2.180548 4.257607 -0.794222
-2.241445 4.005764 -0.809134
-1.683529 3.985974 -0.798589
-1.761821 3.779545 -0.810265
-1.814499 3.548681 -0.814298
-1.880297 3.359931 -0.826553
-1.422379 3.378522 -0.818514
-1.490414 3.203585 -0.823463
-1.559805 3.051354 -0.834252
-1.609742 2.878595 -0.838350
-1.326407 2.596450 -0.828284
-3.549917 8.420379 -0.328691
-3.807524 8.185535 -0.408842
-4.844770 9.498713 -0.586255
-4.776218 8.582007 -0.633927
-3.369395 8.003886 -0.629955
-3.395028 7.307741 -0.661770
-3.436662 6.747559 -0.693267
-3.465344 6.231720 -0.723150
-2.540661 6.046763 -0.717846
-2.611225 5.629100 -0.738065
-2.680802 5.267364 -0.760170
-2.729435 4.911969 -0.778252
-2.024617 4.825418 -0.767976
-2.094898 4.522860 -0.779209
-2.163005 4.255483 -0.792584
-2.228188 4.010900 -0.808787
-1.671672 3.992027 -0.798771
-1.748569 3.781368 -0.809503
-1.798283 3.543747 -0.811896
-1.870930 3.367394 -0.826973
-1.414639 3.389174 -0.820040
-1.477722 3.201953 -0.821874
-1.553952 3.063057 -0.836144
-1.605608 2.891993 -0.840814
-1.322785 2.609087 -0.831017
-1.394673 2.511029 -0.848320
-3.563763 8.526202 -0.332393
-3.718356 8.058396 -0.401921
-4.807038 9.496605 -0.585212
-4.743592 8.585264 -0.633090
-3.343671 8.011424 -0.629738
-3.370507 7.313596 -0.661360
-3.410554 6.747405 -0.692173
-3.442843 6.236225 -0.722444
-2.519422 6.048106 -0.717084
-2.588131 5.624455 -0.736412
-2.664630 5.275563 -0.760170
-2.712917 4.917717 -0.777840
-2.009043 4.829780 -0.767685
-2.082662 4.532857 -0.779827
-2.148607 4.259457 -0.792093
-2.215397 4.016855 -0.808613
-1.661679 4.002586 -0.799860
-1.737369 3.787607 -0.809693
-1.788724 3.551872 -0.812497
-1.866729 3.384247 -0.829702
-1.396398 3.374560 -0.815463
-1.480864 3.234808 -0.829137
-1.541926 3.062603 -0.834725
-1.600470 2.903696 -0.842785
-1.313045 2.609695 -0.829924
-1.390667 2.522014 -0.850586
-3.568193 8.610953 -0.335269
-3.684885 8.050691 -0.400970
-4.776984 9.509524 -0.585102
-4.716271 8.598027 -0.632961
-3.311068 8.002291 -0.628219
-3.343909 7.314838 -0.660542
-3.389391 6.756947 -0.692082
-3.421782 6.243269 -0.722041
-2.496681 6.045700 -0.715887
-2.565916 5.621529 -0.734994
-2.644432 5.275734 -0.759021
-2.696389 4.923411 -0.777429
-1.992330 4.831348 -0.766959
-2.064648 4.530234 -0.778282
-2.138620 4.272204 -0.793239
-2.201644 4.021042 -0.808092
-1.647894 4.004028 -0.799134
-1.724521 3.790239 -0.809121
-1.767307 3.536309 -0.807693
-1.847884 3.374522 -0.825923
-1.384557 3.375217 -0.814592
-1.468919 3.234902 -0.828002
-1.523403 3.049067 -0.829757
-1.591554 2.908592 -0.842785
-1.325658 2.655021 -0.843041
-1.380621 2.522063 -0.849170
-3.540999 8.620011 -0.335197
-3.657690 8.056500 -0.400699
-4.747787 9.524134 -0.585102
-4.686530 8.606321 -0.632510
-3.283095 8.004106 -0.627568
-3.320217 7.322340 -0.660296
-3.369976 6.769988 -0.692356
-3.398332 6.245872 -0.721132
-2.475485 6.046892 -0.715126
-2.547428 5.626661 -0.734640
-2.626909 5.281158 -0.758639
-2.682691 4.934271 -0.777840
-1.975252 4.831942 -0.766088
-2.052368 4.540149 -0.778900
-2.125942 4.279628 -0.793403
-2.185065 4.019990 -0.806530
-1.634859 4.007244 -0.798771
-1.712885 3.795512 -0.809121
-1.760367 3.549614 -0.809494
-1.836589 3.378457 -0.825504
-1.373460 3.377640 -0.814156
-1.438990 3.194994 -0.816653
-1.520084 3.065913 -0.833069
-1.584474 2.916868 -0.843770
-1.317933 2.659938 -0.843314
-1.377456 2.534713 -0.852002
-3.527351 8.662303 -0.336419
-3.629265 8.059486 -0.400292
-4.713232 9.527916 -0.584443
-4.656307 8.613636 -0.631995
-3.257397 8.011370 -0.627351
-3.295284 7.327038 -0.659805
-3.350513 6.782974 -0.692629
-3.377263 6.252767 -0.720729
-2.453184 6.045246 -0.714038
-2.530967 5.636261 -0.734876
-2.605865 5.279409 -0.757236
-2.663306 4.934633 -0.776606
-1.960047 4.837062 -0.765943
-2.038833 4.547325 -0.779055
-2.112802 4.286130 -0.793403
-2.171786 4.024941 -0.806183
-1.612972 3.988537 -0.794052
-1.705243 3.809709 -0.811028
-1.751199 3.558515 -0.810295
-1.824358 3.380634 -0.824664
-1.364186 3.384554 -0.814810
-1.440304 3.224292 -0.823009
-1.505953 3.060972 -0.830467
-1.573677 2.918303 -0.842785
-1.291092 2.625986 -0.831290
-1.365575 2.531331 -0.849453
-4.688002 11.614464 -0.450512
-3.604114 8.069670 -0.400247
-4.674739 9.523509 -0.583290
-4.624668 8.618209 -0.631286
-3.235413 8.027801 -0.627857
-3.271977 7.335292 -0.659641
-3.328811 6.791433 -0.692447
-3.357594 6.262222 -0.720628
-2.432029 6.046289 -0.713276
-2.514068 5.644907 -0.734994
-2.590092 5.288269 -0.757363
-2.646284 4.939288 -0.776057
-1.945198 4.843053 -0.765943
-2.024873 4.553559 -0.779055
-2.089673 4.272211 -0.789636
-2.161287 4.035058 -0.806877
-1.606582 4.008072 -0.796956
-1.693148 3.814026 -0.810838
-1.739844 3.562990 -0.810095
-1.812593 3.383630 -0.824034
-1.350899 3.381473 -0.813066
-1.426460 3.219791 -0.820739
-1.491440 3.055100 -0.827629
-1.572035 2.936789 -0.846727
-1.276703 2.616966 -0.827191
-1.355992 2.532126 -0.848320
-4.685385 11.711371 -0.453711
-3.577721 8.077035 -0.400066
-4.646811 9.540499 -0.583455
-4.591169 8.619144 -0.630320
-3.209289 8.033984 -0.627568
-3.247442 7.340739 -0.659232
-3.305347 6.796240 -0.691900
-3.338366 6.272493 -0.720628
-2.412732 6.051875 -0.713059
-2.495935 5.650777 -0.734758
-2.573856 5.296191 -0.757363
-2.628792 4.943011 -0.775371
-1.929233 4.846240 -0.765507
-2.010893 4.559750 -0.779055
-2.076987 4.279489 -0.789800
-2.150747 4.045147 -0.807571
-1.596093 4.017551 -0.797863
-1.676693 3.808421 -0.808549
-1.733604 3.578010 -0.812297
-1.795318 3.376226 -0.820886
-1.350219 3.410102 -0.818950
-1.419317 3.230394 -0.822328
-1.494767 3.085895 -0.834725
-1.567111 2.949301 -0.848944
-1.350018 2.539662 -0.849453
-4.707634 11.872470 -0.459390
-3.563772 8.112669 -0.401287
-4.607092 9.533134 -0.582137
-4.555842 8.616428 -0.629096
-3.179119 8.029882 -0.626482
-3.225306 7.351580 -0.659314
-3.280152 6.797380 -0.690988
-3.316318 6.277428 -0.720023
-2.390866 6.050928 -0.712079
-2.475798 5.652041 -0.733931
-2.556303 5.301382 -0.756980
-2.613152 4.950177 -0.775234
-1.911451 4.844773 -0.764345
-1.997686 4.567708 -0.779363
-2.065132 4.288507 -0.790291
-2.136488 4.048243 -0.806877
-1.578716 4.009619 -0.795322
-1.660680 3.803651 -0.806451
-1.731957 3.602738 -0.816701
-1.792710 3.396417 -0.824454
-1.335473 3.403326 -0.816335
-1.410567 3.237412 -0.823009
-1.480242 3.079957 -0.831886
-1.549916 2.938664 -0.844509
-1.263120 2.629954 -0.828831
-1.336849 2.533613 -0.846054
-5.140499 13.081123 -0.505545
-3.539664 8.125395 -0.401378
-4.572643 9.536418 -0.581479
-4.529849 8.631248 -0.629161
-3.155925 8.043312 -0.626772
-3.200748 7.356871 -0.658905
-3.253692 6.795735 -0.689803
-3.292885 6.279643 -0.719114
-2.371203 6.055457 -0.711753
-2.461216 5.665985 -0.734758
-2.536174 5.301147 -0.755832
-2.597033 4.956416 -0.774959
-1.894417 4.845086 -0.763474
-1.984057 4.574722 -0.779518
-2.051540 4.293933 -0.790127
-2.127714 4.061758 -0.808266
-1.566407 4.014443 -0.795322
-1.647833 3.806026 -0.805878
-1.721740 3.609804 -0.817101
-1.780013 3.397571 -0.823405
-1.313706 3.378299 -0.809362
-1.395993 3.230996 -0.820285
-1.473295 3.089746 -0.833305
-1.532353 2.927091 -0.839829
-1.251736 2.626869 -0.826645
-1.328180 2.536004 -0.845488
-5.105057 13.108939 -0.506012
-3.612174 8.361815 -0.412507
-4.541219 9.545894 -0.581204
-4.501043 8.640680 -0.628839
-3.129788 8.049238 -0.626482
-3.178558 7.367572 -0.658987
-3.235392 6.811082 -0.690350
-3.270848 6.284420 -0.718509
-2.348299 6.051583 -0.710448
-2.439893 5.664389 -0.733577
-2.514795 5.298151 -0.754301
-2.581358 4.963481 -0.774822
-1.875254 4.839804 -0.761732
-1.971183 4.583510 -0.779981
-2.042160 4.308229 -0.791601
-2.104794 4.048170 -0.804273
-1.551246 4.011893 -0.793870
-1.634986 3.808357 -0.805306
-1.706047 3.605327 -0.814899
-1.774994 3.413425 -0.825923
-1.302985 3.381403 -0.809144
-1.384540 3.231682 -0.819377
-1.456330 3.078442 -0.829048
-1.525153 2.935219 -0.840814
-1.239559 2.622001 -0.823912
-1.323047 2.545172 -0.847187
-5.079567 13.162765 -0.507486
-3.579030 8.355411 -0.411647
-4.508502 9.552557 -0.580765
-4.458930 8.624308 -0.626649
-3.102210 8.051356 -0.625904
-3.143787 7.348883 -0.656449
-3.201745 6.793952 -0.687615
-3.252009 6.295310 -0.718610
-2.329008 6.056904 -0.710230
-2.414313 5.652671 -0.731097
-2.498528 5.305842 -0.754301
-2.564755 4.968736 -0.774411
-1.855077 4.831680 -0.759554
-1.952461 4.578630 -0.778128
-2.026834 4.310011 -0.790782
-2.092816 4.055483 -0.804447
-1.537875 4.013878 -0.793326
-1.616374 3.797098 -0.801873
-1.689982 3.599902 -0.812497
-1.764513 3.418855 -0.825923
-1.298871 3.401796 -0.813066
-1.375380 3.237708 -0.819831
-1.446878 3.082896 -0.829048
-1.511699 2.931270 -0.838350
-1.214354 2.589213 -0.812435
-1.316112 2.550924 -0.847754
-5.007750 13.096144 -0.504323
-3.586574 8.444508 -0.415493
-4.474093 9.555494 -0.580106
-4.435639 8.644163 -0.627100
-3.077138 8.059904 -0.625831
-3.127064 7.372256 -0.657677
-3.178777 6.799232 -0.687159
-3.230864 6.301716 -0.718206
-2.308645 6.059376 -0.709686
-2.396959 5.660052 -0.731097
-2.482658 5.314380 -0.754429
-2.549499 4.976582 -0.774411
-1.842004 4.841972 -0.760280
-1.936866 4.580959 -0.777510
-2.009848 4.308163 -0.789308
-2.079466 4.060132 -0.804099
-1.525554 4.018577 -0.793326
-1.603572 3.799326 -0.801301
-1.670243 3.586418 -0.808293
-1.754907 3.425993 -0.826343
-1.291882 3.414894 -0.815245
-1.358258 3.224859 -0.815519
-1.437413 3.087320 -0.829048
-1.504465 2.939345 -0.839336
-1.206405 2.592926 -0.812435
-1.306968 2.552389 -0.846904
-4.960113 13.091821 -0.503568
-3.591278 8.528204 -0.419067
-4.440129 9.559214 -0.579502
-4.392795 8.625717 -0.624781
-3.043927 8.046918 -0.624095
-3.100954 7.373546 -0.656940
-3.162093 6.817986 -0.688071
-3.211064 6.310712 -0.718105
-2.286885 6.058060 -0.708707
-2.379198 5.666463 -0.730979
-2.462172 5.312973 -0.753153
-2.531975 4.979965 -0.773725
-1.824348 4.840194 -0.759118
-1.921657 4.584146 -0.777047
-1.992478 4.305356 -0.787670
-2.068339 4.069126 -0.804620
-1.513910 4.025079 -0.793689
-1.594940 3.811472 -0.802827
-1.664574 3.603088 -0.810896
-1.744831 3.432232 -0.826553
-1.279686 3.414272 -0.814156
-1.342353 3.214632 -0.811887
-1.429157 3.094362 -0.829757
-1.491928 2.937034 -0.837365
-1.301304 2.560661 -0.848320
-4.894989 13.040548 -0.501016
-3.573949 8.560385 -0.420107
-3.772313 8.187112 -0.495618
-4.364510 8.635592 -0.624523
-3.021326 8.061822 -0.624529
-3.081386 7.390384 -0.657595
-3.142825 6.831274 -0.688435
-3.189446 6.316093 -0.717601
-2.268288 6.065047 -0.708707
-2.360276 5.670069 -0.730506
-2.443789 5.315997 -0.752516
-2.513115 4.980635 -0.772627
-1.809490 4.845768 -0.759118
-1.903413 4.579984 -0.775348
-1.978436 4.309656 -0.787343
-2.055845 4.075452 -0.804620
-1.501554 4.029705 -0.793689
-1.584367 3.819067 -0.803399
-1.653920 3.609069 -0.811096
-1.732531 3.434077 -0.825714
-1.269545 3.419096 -0.814374
-1.317957 3.183641 -0.803035
-1.418443 3.096082 -0.829048
-1.476366 2.928616 -0.833670
-1.294306 2.566354 -0.848887
-4.856352 13.059251 -0.501160
-3.558749 8.598078 -0.421419
-3.693219 8.080589 -0.488482
-4.345154 8.663213 -0.625554
-2.997967 8.074794 -0.624818
-3.059841 7.402567 -0.657841
-3.123919 6.845414 -0.688891
-3.167825 6.321401 -0.717096
-2.250015 6.072910 -0.708816
-2.336809 5.662597 -0.728617
-2.425822 5.319859 -0.752005
-2.494718 4.982122 -0.771667
-1.799764 4.865216 -0.761296
-1.890482 4.588543 -0.775811
-1.967658 4.321092 -0.788325
-2.038923 4.072934 -0.802884
-1.487822 4.030603 -0.792963
-1.577497 3.835712 -0.805878
-1.637164 3.601639 -0.808293
-1.720675 3.436754 -0.825084
-1.255343 3.412900 -0.811977
-1.316687 3.208392 -0.808255
-1.408536 3.099535 -0.828811
-1.461304 2.920997 -0.830221
-1.276124 2.549730 -0.842089
-4.813155 13.065650 -0.500836
-3.531595 8.607107 -0.421329
-3.680367 8.118255 -0.490074
-4.308773 8.656848 -0.624137
-2.971458 8.079273 -0.624457
-3.037116 7.411919 -0.657841
-3.102903 6.854966 -0.688891
-3.153289 6.340889 -0.718206
-2.233086 6.084450 -0.709360
-2.320553 5.672497 -0.728971
-2.409081 5.326372 -0.751878
-2.476336 4.983542 -0.770707
-1.785851 4.873502 -0.761732
-1.880505 4.604382 -0.777510
-1.953174 4.324411 -0.787834
-2.022913 4.072115 -0.801496
-1.477138 4.039766 -0.793870
-1.561645 3.830535 -0.803780
-1.623690 3.601285 -0.807092
-1.710558 3.442892 -0.825294
-1.242862 3.411233 -0.810669
-1.311242 3.223242 -0.810979
-1.395027 3.094983 -0.826446
-1.452767 2.926335 -0.830467
-1.262750 2.542467 -0.838407
-4.765510 13.059701 -0.500045
-4.368198 10.739758 -0.525066
-3.631693 8.076689 -0.486889
-4.277333 8.660185 -0.623428
-2.942902 8.078043 -0.623661
-3.015112 7.423048 -0.658005
-3.084713 6.870812 -0.689529
-3.136462 6.355886 -0.718812
-2.213050 6.087536 -0.708924
-2.303886 5.681430 -0.729207
-2.393135 5.334644 -0.752005
-2.457968 4.984897 -0.769746
-1.769541 4.875237 -0.761151
-1.864516 4.605551 -0.776738
-1.939494 4.329483 -0.787670
-2.007362 4.072118 -0.800280
-1.468421 4.054450 -0.795867
-1.545840 3.825296 -0.801682
-1.613034 3.607144 -0.807292
-1.703878 3.456016 -0.827183
-1.232722 3.415948 -0.810887
-1.299526 3.222733 -0.809844
-1.374422 3.074412 -0.819823
-1.444210 2.931647 -0.830713
-1.259607 2.555792 -0.841522
-4.716250 13.048884 -0.499075
-4.348302 10.785536 -0.526650
-3.620318 8.117886 -0.488701
-4.245474 8.662514 -0.622655
-2.910996 8.067332 -0.622141
-2.988230 7.422094 -0.657104
-3.055518 6.862049 -0.687706
-3.116510 6.364585 -0.718711
-2.188302 6.077462 -0.706966
-2.285704 5.686629 -0.728971
-2.376757 5.341960 -0.752005
-2.440051 4.987076 -0.768923
-1.754910 4.881574 -0.761296
-1.847434 4.603914 -0.775502
-1.929407 4.342625 -0.788981
-1.999187 4.087104 -0.802016
-1.454315 4.054307 -0.794959
-1.523147 3.802683 -0.795960
-1.606329 3.621928 -0.809494
-1.689830 3.454201 -0.825504
-1.235047 3.455556 -0.819386
-1.288548 3.223992 -0.809163
-1.354350 3.054632 -0.813437
-1.431379 2.928228 -0.828496
-1.268614 2.594106 -0.852852
-4.665753 13.034124 -0.497960
-4.308890 10.783056 -0.525881
-3.582471 8.099734 -0.486944
-4.215822 8.669216 -0.622204
-2.883211 8.067772 -0.621490
-2.963598 7.426599 -0.656695
-3.036060 6.875035 -0.688071
-3.096100 6.372327 -0.718509
-2.168644 6.081338 -0.706640
-2.269717 5.697304 -0.729443
-2.356753 5.341060 -0.750857
-2.422577 4.990083 -0.768237
-1.735611 4.874818 -0.759409
-1.830015 4.601298 -0.774112
-1.910904 4.336788 -0.786851
-1.985349 4.090561 -0.801496
-1.439894 4.053190 -0.793870
-1.510387 3.804601 -0.795388
-1.598366 3.634014 -0.811096
-1.676663 3.454092 -0.824244
-1.214344 3.430808 -0.812630
-1.274347 3.217064 -0.806440
-1.340279 3.048099 -0.810598
-1.416044 2.919525 -0.824801
-1.234272 2.543627 -0.835008
-4.630752 13.062506 -0.498500
-4.264752 10.768361 -0.524523
-3.565225 8.128060 -0.487987
-4.185303 8.674020 -0.621625
-2.856116 8.069998 -0.620984
-2.941533 7.437510 -0.656859
-3.015752 6.886142 -0.688253
-3.075239 6.379107 -0.718206
-2.148322 6.083275 -0.706096
-2.251497 5.702394 -0.729207
-2.328825 5.321915 -0.747158
-2.406396 4.995708 -0.767963
-1.722621 4.885719 -0.760280
-1.815527 4.605971 -0.773958
-1.896010 4.339014 -0.786196
-1.969371 4.089534 -0.800107
-1.423210 4.045529 -0.791511
-1.499786 3.811957 -0.795960
-1.587993 3.640696 -0.811496
-1.658421 3.443364 -0.820466
-1.195097 3.409649 -0.806747
-1.268386 3.230931 -0.808936
-1.325096 3.038838 -0.807050
-1.394472 2.897656 -0.817410
-1.221886 2.537897 -0.831892
-4.581055 13.049306 -0.497457
-4.227681 10.771165 -0.524026
-3.553813 8.170091 -0.489854
-4.149622 8.667917 -0.620272
-2.828376 8.070251 -0.620333
-2.916155 7.440004 -0.656286
-2.994612 6.895361 -0.688253
-3.053937 6.384922 -0.717803
-2.128992 6.087961 -0.705878
-2.232183 5.704651 -0.728617
-2.310907 5.325395 -0.746648
-2.391058 5.003067 -0.767963
-1.703384 4.878837 -0.758392
-1.801028 4.610599 -0.773803
-1.889357 4.360198 -0.788981
-1.955117 4.092002 -0.799412
-1.408527 4.043376 -0.790240
-1.494859 3.833918 -0.799584
-1.570592 3.631163 -0.808293
-1.650800 3.454611 -0.821936
-1.185590 3.416066 -0.807400
-1.260939 3.241161 -0.810525
-1.316538 3.044672 -0.807523
-1.370960 2.871310 -0.808788
-1.216161 2.545960 -0.833308
-4.539030 13.057635 -0.497242
-4.188097 10.767326 -0.523212
-3.556413 8.245134 -0.493697
-4.120441 8.675199 -0.619886
-2.802949 8.077006 -0.620188
-2.886820 7.432193 -0.654812
-2.973443 6.904516 -0.688253
-3.032201 6.389767 -0.717298
-2.105751 6.081314 -0.704355
-2.207491 5.692955 -0.726254
-2.293382 5.329727 -0.746265
-2.382912 5.025594 -0.770295
-1.688731 4.884976 -0.758537
-1.784735 4.610575 -0.772876
-1.869740 4.351473 -0.786360
-1.939601 4.091752 -0.798197
-1.396436 4.048608 -0.790422
-1.480613 3.832076 -0.798249
-1.558672 3.634164 -0.807893
-1.641032 3.461426 -0.822355
-1.164004 3.387382 -0.799773
-1.246786 3.234109 -0.807801
-1.321741 3.082631 -0.816512
-1.368783 2.889517 -0.812729
-1.201773 2.535813 -0.828776
-4.483662 13.027087 -0.495552
-4.145343 10.754957 -0.521990
-3.539347 8.275285 -0.494850
-4.089553 8.678772 -0.619241
-2.778480 8.086511 -0.620260
-2.853981 7.414971 -0.652520
-2.945598 6.898037 -0.686703
-3.010888 6.395439 -0.716895
-2.084504 6.080222 -0.703484
-2.186809 5.691358 -0.725191
-2.278188 5.339474 -0.746648
-2.370013 5.038259 -0.771118
-1.675659 4.895750 -0.759409
-1.768812 4.611416 -0.772104
-1.863341 4.373524 -0.789308
-1.923686 4.090553 -0.796808
-1.381784 4.046358 -0.789151
-1.475167 3.853102 -0.801682
-1.546749 3.637125 -0.807493
-1.625827 3.456712 -0.820047
-1.147633 3.373382 -0.795633
-1.236163 3.236100 -0.807348
-1.294790 3.045540 -0.805631
-1.355789 2.884931 -0.810266
-4.435294 13.016187 -0.494617
-4.117318 10.780690 -0.522623
-3.565399 8.407446 -0.502096
-4.058259 8.681334 -0.618533
-2.747877 8.078000 -0.618958
-2.822695 7.401343 -0.650556
-2.914714 6.884116 -0.684424
-2.984096 6.389322 -0.715179
-2.061688 6.074352 -0.702070
-2.168985 5.697113 -0.725073
-2.261796 5.346439 -0.746648
-2.355382 5.047302 -0.771393
-1.657773 4.892434 -0.758102
-1.757113 4.623286 -0.773185
-1.845692 4.369224 -0.787506
-1.912376 4.099114 -0.797329
-1.365584 4.039399 -0.786973
-1.463687 3.858528 -0.801873
-1.534441 3.639145 -0.806892
-1.614388 3.459912 -0.819627
-1.126688 3.345440 -0.788223
-1.227263 3.242609 -0.808028
-1.299027 3.081730 -0.814146
-1.354713 2.905766 -0.814947
-4.386396 13.003219 -0.493611
-4.082809 10.789533 -0.522442
-3.543459 8.427549 -0.502645
-4.026148 8.681975 -0.617696
-2.720534 8.078831 -0.618379
-2.797157 7.402509 -0.649901
-2.888184 6.880171 -0.683147
-2.956533 6.381295 -0.713262
-2.039559 6.070283 -0.700873
-2.154651 5.712102 -0.726136
-2.245766 5.354267 -0.746775
-2.338222 5.050909 -0.770844
-1.646531 4.908753 -0.759844
-1.739439 4.619409 -0.771641
-1.829611 4.368497 -0.786360
-1.900205 4.105855 -0.797503
-1.349752 4.033312 -0.784977
-1.452533 3.864838 -0.802254
-1.523269 3.643836 -0.806892
-1.607461 3.472834 -0.821516
-1.225516 3.268245 -0.813476
-1.340910 2.899353 -0.811990
-4.346166 13.015667 -0.493575
-4.046532 10.793590 -0.522035
-3.518355 8.440224 -0.502755
-3.994906 8.684313 -0.616987
-2.693213 8.079570 -0.617800
-2.780373 7.426923 -0.651293
-2.865532 6.885322 -0.682783
-2.928633 6.372256 -0.711244
-2.020613 6.075568 -0.700765
-2.135378 5.714035 -0.725546
-2.228567 5.359300 -0.746520
-2.316514 5.044556 -0.768786
-1.629281 4.907209 -0.758828
-1.729748 4.636758 -0.773649
-1.811660 4.363157 -0.784394
-1.889654 4.116141 -0.798371
-1.331806 4.020631 -0.781710
-1.438957 3.864676 -0.801301
-1.510957 3.645777 -0.806292
-1.589864 3.462644 -0.817948
-1.204291 3.241862 -0.805986
-1.332009 2.903453 -0.811990
-4.294297 12.992882 -0.492209
-4.003660 10.779732 -0.520768
-3.521046 8.520188 -0.506872
-3.916875 8.583952 -0.609000
-2.666537 8.082111 -0.617366
-2.759308 7.440091 -0.651702
-2.843255 6.891319 -0.682509
-2.911132 6.385737 -0.711749
-1.998545 6.071353 -0.699568
-2.119216 5.724284 -0.726018
-2.212493 5.367029 -0.746648
-2.296099 5.040822 -0.767140
-1.613601 4.910305 -0.758537
-1.711747 4.631848 -0.771950
-1.798266 4.368694 -0.784394
-1.878241 4.124607 -0.798892
-1.313338 4.006009 -0.778080
-1.424376 3.861705 -0.799775
-1.495297 3.639520 -0.803890
-1.584906 3.479962 -0.820886
-1.192995 3.241886 -0.805078
-1.326306 2.914583 -0.813961
-4.238569 12.957555 -0.490376
-3.962636 10.770401 -0.519728
-3.920348 9.569485 -0.568578
-3.701653 8.178633 -0.579436
-2.634609 8.068448 -0.615702
-2.729251 7.428876 -0.649983
-2.818707 6.891714 -0.681689
-2.886609 6.383760 -0.710538
-1.978369 6.072730 -0.699024
-2.103012 5.734488 -0.726491
-2.195641 5.372874 -0.746520
-2.276545 5.038816 -0.765768
-1.599753 4.918996 -0.759118
-1.698208 4.638933 -0.772259
-1.784854 4.374191 -0.784394
-1.868821 4.137530 -0.800280
-1.301952 4.012825 -0.778625
-1.406121 3.848538 -0.796151
-1.487450 3.652257 -0.805691
-1.573015 3.482136 -0.820256
-1.190047 3.264746 -0.809844
-4.195410 12.960039 -0.489980
-3.926496 10.774060 -0.519321
-3.895855 9.593494 -0.569291
-3.677770 8.192682 -0.579629
-2.602482 8.053716 -0.613966
-2.702357 7.425975 -0.649001
-2.795679 6.895715 -0.681233
-2.863753 6.385324 -0.709731
-1.962169 6.086340 -0.699894
-2.083375 5.735313 -0.725782
-2.178030 5.376827 -0.746137
-2.261481 5.046680 -0.765905
-1.584654 4.923880 -0.759118
-1.681948 4.638549 -0.771332
-1.771426 4.379645 -0.784394
-1.849677 4.128864 -0.797503
-1.288732 4.013992 -0.778080
-1.391969 3.846372 -0.794816
-1.471103 3.644084 -0.802889
-1.561525 3.485161 -0.819837
-1.177049 3.260137 -0.807801
-4.152276 12.962380 -0.489585
-3.890370 10.777600 -0.518914
-3.867150 9.607254 -0.569401
-3.650589 8.199369 -0.579307
-2.581103 8.072112 -0.614762
-2.674154 7.419229 -0.647691
-2.769312 6.891323 -0.679956
-2.838893 6.382262 -0.708419
-1.945300 6.098013 -0.700547
-2.061399 5.729531 -0.724247
-2.158937 5.377041 -0.745244
-2.247194 5.056310 -0.766317
-1.565938 4.917406 -0.757376
-1.668377 4.645547 -0.771641
-1.755779 4.379566 -0.783412
-1.837401 4.135420 -0.797676
-1.271946 4.003868 -0.775358
-1.379830 3.849701 -0.794625
-1.460644 3.650399 -0.803289
-1.548046 3.483680 -0.818367
-1.166058 3.260982 -0.807121
-4.431011 11.091686 -0.218076
-4.118829 12.995064 -0.490340
-3.849552 10.767848 -0.517873
-3.836917 9.617217 -0.569291
-3.618967 8.195924 -0.578276
-2.558432 8.086649 -0.615268
-2.648029 7.418012 -0.646873
-2.743735 6.888685 -0.678862
-2.820102 6.392762 -0.708621
-1.929275 6.112484 -0.701526
-2.042145 5.731152 -0.723656
-2.136563 5.368894 -0.743203
-2.232470 5.064994 -0.766591
-1.548763 4.915581 -0.756359
-1.653785 4.649713 -0.771486
-1.740877 4.381265 -0.782756
-1.827087 4.146445 -0.798718
-1.259656 4.007752 -0.775358
-1.367357 3.852066 -0.794243
-1.450161 3.656685 -0.803689
-1.535380 3.483940 -0.817318
-1.156698 3.266380 -0.807574
-4.425303 11.176809 -0.219481
-4.065785 12.965683 -0.488758
-3.818832 10.786200 -0.518190
-3.807761 9.629872 -0.569346
-3.596607 8.213387 -0.578727
-2.530333 8.083989 -0.614472
-2.624594 7.424222 -0.646709
-2.722222 6.896144 -0.678771
-2.798881 6.397738 -0.708217
-1.914661 6.131659 -0.703049
-2.022570 5.731771 -0.722947
-2.118989 5.372656 -0.742821
-2.216127 5.070004 -0.766317
-1.531908 4.914642 -0.755488
-1.644436 4.668743 -0.773803
-1.720559 4.369145 -0.779644
-1.816329 4.156543 -0.799586
-1.247354 4.011597 -0.775358
-1.363996 3.880321 -0.799203
-1.437860 3.658381 -0.803089
-1.516070 3.468924 -0.812700
-4.382593 11.168926 -0.219062
-4.012367 12.934189 -0.487105
-3.783740 10.792209 -0.517918
-3.778928 9.643369 -0.569456
-3.575366 8.233535 -0.579371
-2.492244 8.048841 -0.611216
-2.600488 7.428477 -0.646382
-2.697787 6.896116 -0.677950
-2.773301 6.392604 -0.706704
-1.894667 6.133705 -0.702614
-2.000390 5.724825 -0.721294
-2.101052 5.375436 -0.742310
-2.197016 5.068599 -0.765082
-1.515074 4.913646 -0.754617
-1.628478 4.669101 -0.773031
-1.714320 4.392783 -0.782920
-1.803177 4.161192 -0.799412
-1.233306 4.009766 -0.774269
-1.355635 3.894685 -0.801301
-1.428763 3.668253 -0.804290
-1.502310 3.466382 -0.811021
-4.343958 11.171136 -0.218843
-3.972080 12.944526 -0.487033
-3.749629 10.800936 -0.517783
-3.746433 9.647470 -0.569017
-3.554826 8.255465 -0.580144
-2.468415 8.059310 -0.611434
-2.574747 7.427945 -0.645645
-2.676617 6.904361 -0.677950
-2.746992 6.385546 -0.704988
-1.870612 6.122376 -0.700656
-1.981843 5.728120 -0.720939
-2.085267 5.383707 -0.742565
-2.177935 5.067125 -0.763847
-1.499992 4.918271 -0.754617
-1.611565 4.666605 -0.771795
-1.701547 4.399862 -0.783248
-1.781071 4.144988 -0.795246
-1.215847 3.996595 -0.771002
-1.336003 3.876552 -0.796723
-1.418208 3.674447 -0.804690
-1.497072 3.483551 -0.813960
-4.310743 11.187210 -0.218897
-3.560194 8.330613 -0.252738
-3.919288 12.913619 -0.485415
-3.719073 10.819946 -0.518145
-3.716817 9.658919 -0.569017
-3.550250 8.314974 -0.583558
-2.441365 8.059208 -0.610855
-2.553564 7.440522 -0.646054
-2.653994 6.908822 -0.677586
-2.729340 6.398519 -0.705493
-1.846644 6.110958 -0.698697
-1.965547 5.737931 -0.721412
-2.069807 5.392857 -0.742948
-2.158108 5.063760 -0.762338
-1.484896 4.922849 -0.754617
-1.595962 4.667787 -0.771177
-1.688393 4.405983 -0.783412
-1.766416 4.145903 -0.794378
-1.212080 4.028558 -0.776446
-1.316179 3.857407 -0.791954
-1.409378 3.685187 -0.806091
-1.484845 3.484530 -0.813120
-4.278184 11.205053 -0.218989
-3.556850 8.393958 -0.254327
-3.886546 12.948555 -0.486278
-3.684573 10.827523 -0.517964
-3.689657 9.676807 -0.569401
-3.555069 8.397506 -0.588582
-2.416914 8.067616 -0.610927
-2.531046 7.449265 -0.646136
-2.627826 6.903902 -0.676309
-2.714735 6.418774 -0.706805
-1.822194 6.097546 -0.696521
-1.948253 5.744875 -0.721530
-2.050784 5.392692 -0.742055
-2.140634 5.065795 -0.761652
-1.468937 4.924538 -0.754181
-1.579734 4.667047 -0.770251
-1.674868 4.411142 -0.783412
-1.751772 4.146767 -0.793510
-1.196349 4.020947 -0.774269
-1.290202 3.819576 -0.783371
-1.398065 3.689493 -0.806091
-1.474148 3.489069 -0.813120
-4.232113 11.187265 -0.218386
-3.624004 8.626011 -0.261020
-3.845949 12.957544 -0.486170
-3.642088 10.811321 -0.516652
-3.652894 9.669400 -0.568303
-3.537013 8.426776 -0.589870
-2.390452 8.069255 -0.610493
-2.506274 7.451328 -0.645645
-2.604173 6.905409 -0.675671
-2.696953 6.431661 -0.707309
-1.802915 6.101201 -0.696304
-1.931567 5.753649 -0.721884
-2.027585 5.381324 -0.739631
-2.124317 5.070511 -0.761378
-1.453822 4.929021 -0.754181
-1.563525 4.666250 -0.769324
-1.663411 4.421800 -0.784394
-1.739803 4.153939 -0.793857
-1.186783 4.034032 -0.776083
-1.262290 3.775105 -0.773453
-1.387084 3.694682 -0.806292
-1.467214 3.502593 -0.815219
-4.197069 11.198324 -0.218350
-3.600982 8.645394 -0.261271
-3.801675 12.953940 -0.485595
-3.606058 10.813915 -0.516244
-3.621111 9.674951 -0.567974
-3.647249 8.764661 -0.612736
-2.367928 8.084209 -0.611072
-2.483401 7.458982 -0.645645
-2.580535 6.906836 -0.675033
-2.674917 6.434393 -0.706704
-1.785861 6.112429 -0.696957
-1.912027 5.753894 -0.721176
-2.008291 5.380085 -0.738611
-2.107611 5.074260 -0.760966
-1.439801 4.937258 -0.754762
-1.548579 4.669150 -0.769015
-1.653971 4.437975 -0.786360
-1.725162 4.154709 -0.792989
-1.174676 4.038598 -0.776265
-1.259030 3.804122 -0.778603
-1.374376 3.695247 -0.805491
-1.460586 3.517010 -0.817528
-4.152601 11.183966 -0.217820
-3.571771 8.649933 -0.261076
-3.757181 12.949226 -0.484984
-3.570673 10.818287 -0.515928
-3.585164 9.669163 -0.566985
-3.614253 8.761050 -0.611705
-2.343947 8.094309 -0.611289
-2.456139 7.453313 -0.644499
-2.558296 6.911919 -0.674759
-2.654027 6.439809 -0.706401
-1.767376 6.118834 -0.697065
-1.889712 5.745583 -0.719404
-1.987992 5.375989 -0.737208
-2.089770 5.075207 -0.760143
-1.421906 4.932145 -0.753310
-1.535172 4.676695 -0.769479
-1.635223 4.429146 -0.783903
-1.713907 4.163625 -0.793684
-1.163095 4.045019 -0.776810
-1.361339 3.694849 -0.804490
-1.449417 3.520571 -0.817318
-4.118615 11.197591 -0.217838
-3.543701 8.657150 -0.260964
-3.310480 11.541855 -0.431892
-3.533744 10.817795 -0.515385
-3.547564 9.658559 -0.565723
-3.585469 8.767479 -0.611383
-2.319103 8.101462 -0.611289
-2.431098 7.454181 -0.643926
-2.539136 6.925345 -0.675306
-2.629742 6.436869 -0.705190
-1.747504 6.120404 -0.696630
-1.863162 5.723971 -0.715979
-1.968078 5.372749 -0.735932
-2.072319 5.077008 -0.759457
-1.404599 4.928872 -0.752148
-1.518680 4.674805 -0.768397
-1.620610 4.431363 -0.783412
-1.701125 4.168864 -0.793684
-1.148529 4.041000 -0.775358
-1.347310 3.691646 -0.802889
-1.439348 3.526811 -0.817738
-4.083557 11.208295 -0.217802
-4.583763 11.296719 -0.340107
-3.273691 11.547150 -0.431712
-3.498080 10.820982 -0.515023
-3.511771 9.652508 -0.564735
-3.551431 8.760866 -0.610160
-2.290978 8.097023 -0.610421
-2.405462 7.453068 -0.643189
-2.510399 6.912510 -0.673301
-2.607367 6.438452 -0.704484
-1.722239 6.102776 -0.694019
-1.849246 5.741002 -0.717396
-1.949894 5.374100 -0.735294
-2.054503 5.077833 -0.758634
-1.388397 4.929348 -0.751568
-1.507354 4.688848 -0.769942
-1.605327 4.431677 -0.782593
-1.685004 4.165846 -0.792121
-1.135328 4.041665 -0.774813
-1.329982 3.679176 -0.799286
-1.428521 3.531211 -0.817738
-4.045079 11.209486 -0.217583
-4.564750 11.349680 -0.341278
-3.224229 11.507100 -0.429843
-3.447821 10.778379 -0.512489
-3.480110 9.657600 -0.564405
-3.523420 8.768942 -0.609966
-2.265321 8.101132 -0.610204
-2.378947 7.449020 -0.642207
-2.490191 6.922990 -0.673574
-2.589455 6.451037 -0.704988
-1.701371 6.100371 -0.693149
-1.824688 5.724888 -0.714680
-1.931720 5.375390 -0.734656
-2.036334 5.077677 -0.757674
-1.373268 4.933585 -0.751568
-1.495657 4.701924 -0.771332
-1.589058 4.429152 -0.781282
-1.667818 4.160027 -0.790038
-1.118978 4.030916 -0.772091
-1.324633 3.699843 -0.802889
-1.412587 3.522872 -0.814799
-4.011006 11.222784 -0.217601
-4.482158 11.243847 -0.337681
-3.200911 11.560278 -0.431460
-3.424082 10.818432 -0.513892
-3.441067 9.641900 -0.562868
-3.495393 8.776929 -0.609773
-2.231158 8.074396 -0.607671
-2.352479 7.444880 -0.641225
-2.465264 6.920278 -0.672571
-2.568180 6.455254 -0.704585
-1.683176 6.107478 -0.693366
-1.810401 5.740877 -0.715979
-1.916217 5.384095 -0.735039
-2.022210 5.087582 -0.758223
-1.359700 4.943498 -0.752439
-1.480039 4.702721 -0.770714
-1.574802 4.432148 -0.780955
-1.659047 4.175192 -0.791948
-1.101923 4.017259 -0.768824
-1.312621 3.702043 -0.802488
-1.394189 3.508108 -0.810391
-3.962878 11.196393 -0.216853
-4.457926 11.283577 -0.338461
-3.173078 11.597998 -0.432503
-3.387293 10.817446 -0.513349
-3.413134 9.657120 -0.563143
-3.464419 8.777401 -0.609065
-2.205325 8.077354 -0.607382
-2.329627 7.452062 -0.641225
-2.441370 6.920296 -0.671842
-2.544715 6.453847 -0.703576
-1.667042 6.122205 -0.694454
-1.796329 5.757779 -0.717396
-1.899031 5.388077 -0.734784
-2.006229 5.092841 -0.758086
-1.346862 4.956240 -0.753746
-1.464723 4.704409 -0.770251
-1.556285 4.423000 -0.778498
-1.644065 4.174764 -0.790906
-1.088822 4.017773 -0.768279
-1.296388 3.692186 -0.799486
-1.383061 3.511459 -0.810182
-3.927848 11.206611 -0.216816
-4.382834 11.193881 -0.335366
-3.135394 11.599960 -0.432215
-3.354976 10.830649 -0.513485
-3.373265 9.638330 -0.561441
-3.441110 8.797282 -0.609709
-2.175079 8.063860 -0.605863
-2.308520 7.464887 -0.641716
-2.420128 6.927754 -0.671842
-2.521282 6.452357 -0.702567
-1.646444 6.120571 -0.693693
-1.776606 5.756621 -0.716569
-1.889028 5.412607 -0.737335
-1.989515 5.096203 -0.757674
-1.332420 4.963215 -0.754181
-1.446793 4.697551 -0.768397
-1.539787 4.419369 -0.777024
-1.632323 4.182540 -0.791427
-1.078525 4.028695 -0.769731
-1.282803 3.689668 -0.798085
-1.369438 3.508400 -0.808502
-3.877058 11.171381 -0.215903
-4.321352 11.137380 -0.333274
-3.147742 11.789113 -0.438901
-3.313538 10.814148 -0.512218
-3.340410 9.639199 -0.560892
-3.408694 8.793841 -0.608743
-2.148275 8.062785 -0.605284
-2.290272 7.487183 -0.643026
-2.403745 6.949263 -0.673210
-2.497163 6.448928 -0.701356
-1.629446 6.132318 -0.694454
-1.757197 5.756346 -0.715861
-1.868202 5.406190 -0.735677
-1.973870 5.102283 -0.757674
-1.314143 4.955803 -0.752439
-1.427192 4.684955 -0.765617
-1.523648 4.416612 -0.775713
-1.614511 4.174669 -0.788997
-1.063897 4.023428 -0.768098
-1.264142 3.672278 -0.793481
-1.362900 3.523527 -0.811021
-3.830094 11.146345 -0.215191
-4.304023 11.194438 -0.334585
-3.420931 12.971821 -0.482540
-3.282084 10.829998 -0.512489
-3.305960 9.635235 -0.560068
-3.377047 8.792147 -0.607905
-2.122514 8.065479 -0.604994
-2.260364 7.471279 -0.641061
-2.382737 6.957547 -0.673301
-2.475941 6.452844 -0.700952
-1.610624 6.137289 -0.694454
-1.738094 5.756957 -0.715270
-1.851286 5.410958 -0.735549
-1.958207 5.108315 -0.757674
-1.286149 4.910998 -0.745034
-1.415377 4.697825 -0.767007
-1.510091 4.421266 -0.775713
-1.599229 4.173166 -0.787781
-1.047573 4.011449 -0.765194
-1.244968 3.652955 -0.788476
-1.353483 3.531344 -0.811861
-3.789118 11.138166 -0.214808
-4.252221 11.161818 -0.333219
-3.379103 12.974519 -0.482252
-3.243967 10.823749 -0.511720
-3.273494 9.636824 -0.559574
-3.345088 8.789409 -0.607004
-2.097508 8.070988 -0.604922
-2.230004 7.453354 -0.638933
-2.359781 6.960109 -0.672845
-2.456485 6.461339 -0.701053
-1.592037 6.143163 -0.694563
-1.719003 5.757505 -0.714680
-1.833404 5.412854 -0.735039
-1.941471 5.111521 -0.757262
-1.269590 4.909174 -0.744162
-1.400112 4.699305 -0.766544
-1.496835 4.426812 -0.775877
-1.589914 4.187260 -0.789517
-1.215902 3.603841 -0.777067
-1.340908 3.530909 -0.810811
-3.762268 11.171532 -0.215228
-4.171009 11.050429 -0.329510
-3.331317 12.953853 -0.481102
-3.209041 10.827903 -0.511449
-3.240094 9.635463 -0.558915
-3.302262 8.757612 -0.604105
-2.072241 8.075453 -0.604777
-2.202320 7.443914 -0.637542
-2.332713 6.950322 -0.671204
-2.431390 6.454880 -0.699540
-1.571458 6.141277 -0.693802
-1.700769 5.760847 -0.714443
-1.816474 5.417513 -0.734911
-1.922291 5.108182 -0.755891
-1.252810 4.906335 -0.743146
-1.379824 4.683676 -0.763300
-1.482934 4.430448 -0.775713
-1.577407 4.193039 -0.789691
-1.336266 3.551478 -0.814589
-3.707424 11.121368 -0.214041
-4.128684 11.040702 -0.328841
-3.293281 12.970793 -0.481353
-3.175807 10.837698 -0.511449
-3.207995 9.637780 -0.558476
-3.276077 8.769571 -0.604234
-2.046476 8.077906 -0.604488
-2.179193 7.449678 -0.637460
-2.306670 6.943270 -0.669836
-2.416097 6.474426 -0.700852
-1.550905 6.139323 -0.693040
-1.680582 5.757459 -0.713380
-1.801406 5.427767 -0.735549
-1.904188 5.107559 -0.754930
-1.233398 4.892887 -0.740532
-1.362133 4.676504 -0.761447
-1.469024 4.434040 -0.775550
-1.566943 4.204319 -0.790906
-1.325022 3.554645 -0.814379
-4.086805 11.031758 -0.328199
-3.249827 12.966295 -0.480814
-3.141152 10.842593 -0.511223
-3.178099 9.646628 -0.558421
-3.249157 8.779580 -0.604234
-2.019264 8.074470 -0.603764
-2.156604 7.457286 -0.637542
-2.282247 6.940854 -0.668924
-2.395533 6.479942 -0.700650
-1.532062 6.144053 -0.693040
-1.661534 5.757817 -0.712790
-1.785674 5.436095 -0.735932
-1.889196 5.115235 -0.755205
-1.216231 4.888007 -0.739225
-1.348053 4.681611 -0.761601
-1.460639 4.454462 -0.778334
-1.555060 4.211878 -0.791427
-1.305305 3.534846 -0.808922
-3.247390 11.319939 -0.105650
-3.640666 11.148659 -0.214133
-4.081868 11.123070 -0.330542
-3.202592 12.946131 -0.479700
-3.102922 10.834892 -0.510408
-3.147251 9.652536 -0.558202
-3.221520 8.787634 -0.604105
-1.993048 8.074817 -0.603330
-2.134537 7.466743 -0.637787
-2.258476 6.940248 -0.668195
-2.370168 6.472313 -0.699035
-1.513918 6.151620 -0.693366
-1.643589 5.761933 -0.712672
-1.768068 5.438719 -0.735549
-1.871792 5.116356 -0.754519
-1.198870 4.882106 -0.737773
-1.335577 4.692376 -0.762683
-1.449098 4.465491 -0.779481
-1.544837 4.224028 -0.792816
-1.296133 3.543426 -0.809972
-3.207463 11.311571 -0.105480
-3.570473 11.048464 -0.211997
-4.053871 11.152452 -0.331044
-3.166414 12.970459 -0.480239
-3.069395 10.843399 -0.510363
-3.112410 9.645992 -0.557269
-3.191819 8.789972 -0.603590
-1.968030 8.079924 -0.603258
-2.116768 7.491479 -0.639342
-2.241141 6.959467 -0.669380
-2.349621 6.477684 -0.698834
-1.493865 6.151405 -0.692822
-1.625904 5.766948 -0.712672
-1.749552 5.438452 -0.734784
-1.856761 5.123937 -0.754793
-1.185750 4.893454 -0.738935
-1.323047 4.703109 -0.763764
-1.434788 4.468037 -0.779153
-1.528181 4.218562 -0.790906
-1.283258 3.541870 -0.808712
-3.187316 11.373352 -0.105964
-3.580718 11.197453 -0.214644
-3.973924 11.037868 -0.327279
-3.125670 12.976226 -0.480095
-3.037728 10.858537 -0.510635
-3.079158 9.644080 -0.556610
-3.161798 8.791271 -0.603010
-1.942999 8.084955 -0.603186
-2.089754 7.483539 -0.638115
-2.218873 6.963463 -0.669107
-2.329737 6.484862 -0.698834
-1.474059 6.152093 -0.692387
-1.610070 5.778605 -0.713499
-1.731354 5.439068 -0.734146
-1.838690 5.123083 -0.753833
-1.164750 4.872049 -0.735160
-1.308877 4.708098 -0.763918
-1.416294 4.457375 -0.776532
-1.516229 4.226012 -0.791427
-1.278330 3.562355 -0.812490
-3.179630 11.481373 -0.106879
-3.511361 11.097808 -0.212526
-3.952799 11.085786 -0.328339
-3.084690 12.980893 -0.479916
-2.992422 10.824477 -0.508599
-3.049556 9.653482 -0.556610
-3.132803 8.795290 -0.602624
-1.918185 8.090877 -0.603186
-2.067315 7.491836 -0.638278
-2.195702 6.964539 -0.668560
-2.310164 6.492916 -0.698934
-1.453806 6.150781 -0.691734
-1.590225 5.775858 -0.712554
-1.714361 5.443409 -0.734018
-1.821969 5.125900 -0.753421
-1.155702 4.900637 -0.738935
-1.293903 4.710186 -0.763609
-1.401724 4.458876 -0.776041
-1.502267 4.227859 -0.790906
-1.267395 3.566260 -0.812490
-3.145974 11.496861 -0.106933
-3.503581 11.192496 -0.214133
-3.914443 11.085608 -0.327976
-3.041430 12.975700 -0.479376
-2.956040 10.822043 -0.508056
-3.018138 9.657074 -0.556280
-3.098169 8.783215 -0.601142
-1.892445 8.092840 -0.602896
-2.043534 7.495259 -0.638033
-2.171656 6.962687 -0.667739
-2.289572 6.498096 -0.698733
-1.433800 6.150372 -0.691190
-1.568066 5.764421 -0.710546
-1.696178 5.443908 -0.733381
-1.800643 5.115582 -0.751089
-1.138644 4.895487 -0.737628
-1.273494 4.692203 -0.760057
-1.390675 4.471633 -0.777515
-1.487328 4.226874 -0.789865
-1.249956 3.551686 -0.808293
-3.174884 11.743924 -0.109140
-3.476324 11.226115 -0.214571
-3.896252 11.142857 -0.329315
-2.997105 12.965497 -0.478657
-2.923866 10.834918 -0.508237
-2.987316 9.662473 -0.556061
-3.069892 8.788910 -0.600884
-1.868505 8.102495 -0.603186
-2.010161 7.462999 -0.634759
-2.148230 6.962656 -0.667101
-2.264709 6.491000 -0.697219
-1.414034 6.150867 -0.690755
-1.548312 5.761533 -0.709601
-1.678300 5.445295 -0.732870
-1.782006 5.112663 -0.749854
-1.119638 4.881599 -0.735015
-1.254743 4.679865 -0.757431
-1.373759 4.465507 -0.775713
-1.474029 4.230488 -0.789691
-1.240341 3.559197 -0.809132
-3.160511 11.834762 -0.109893
-3.445381 11.248199 -0.214790
-3.838174 11.085802 -0.327279
-2.955537 12.966836 -0.478370
-2.895757 10.863143 -0.509142
-2.954446 9.661089 -0.555457
-3.041609 8.794515 -0.600627
-1.840763 8.095546 -0.602245
-1.983668 7.455648 -0.633613
-2.124533 6.961594 -0.666372
-2.241211 6.487573 -0.696109
-1.395156 6.155176 -0.690755
-1.529864 5.763377 -0.709247
-1.655512 5.430495 -0.730191
-1.769544 5.127470 -0.751226
-1.108803 4.903347 -0.737773
-1.230515 4.646444 -0.751408
-1.357468 4.461207 -0.774239
-1.462328 4.238714 -0.790385
-1.217934 3.529713 -0.801576
-3.142053 13.955660 0.009737
-3.180806 12.059052 -0.111885
-3.410276 11.256802 -0.214753
-3.803172 11.094689 -0.327195
-2.909168 12.946591 -0.477291
-2.862670 10.872943 -0.509187
-2.925081 9.671064 -0.555512
-3.011380 8.794364 -0.599983
-1.812427 8.085584 -0.601087
-1.958252 7.452059 -0.632794
-2.100863 6.960452 -0.665642
-2.216467 6.480298 -0.694596
-1.377350 6.164278 -0.691299
-1.511924 5.767082 -0.709129
-1.636840 5.428901 -0.729298
-1.752524 5.129125 -0.750678
-1.067277 4.787944 -0.719913
-1.211504 4.632036 -0.748473
-1.338089 4.446457 -0.770964
-1.448362 4.240385 -0.789865
-1.208996 3.538984 -0.802835
-3.146019 14.176103 0.009884
-3.164464 12.148103 -0.112620
-3.371994 11.254760 -0.214516
-3.767831 11.102518 -0.327084
-2.866625 12.942771 -0.476824
-2.827539 10.874905 -0.508870
-2.896256 9.682862 -0.555677
-2.984385 8.803562 -0.599983
-1.784815 8.078445 -0.600147
-1.934629 7.455137 -0.632549
-2.078359 6.963048 -0.665278
-2.191789 6.472933 -0.693082
-1.353728 6.147117 -0.688906
-1.493228 5.767849 -0.708656
-1.619610 5.431996 -0.729043
-1.735193 5.129786 -0.749992
-1.075511 4.895562 -0.735595
-1.156769 4.478847 -0.723143
-1.323878 4.448651 -0.770636
-1.433769 4.240143 -0.788997
-1.183411 3.499146 -0.792970
-3.146313 14.385954 0.010024
-3.199418 12.438601 -0.115222
-3.337165 11.264094 -0.214498
-3.734707 11.116867 -0.327167
-2.811986 12.883159 -0.474308
-2.793665 10.881594 -0.508780
-2.868235 9.697447 -0.556006
-2.956410 8.809838 -0.599790
-1.755991 8.065366 -0.598772
-1.911748 7.461038 -0.632549
-2.057269 6.970347 -0.665369
-2.171920 6.479627 -0.693082
-1.333387 6.144442 -0.688144
-1.474050 5.766630 -0.707947
-1.605461 5.445502 -0.730191
-1.718188 5.131328 -0.749443
-1.072419 4.953958 -0.743872
-1.315236 4.469726 -0.773584
-1.419503 4.240787 -0.788302
-3.151667 14.625266 0.010184
-3.187823 12.553031 -0.116191
-3.302029 11.272360 -0.214461
-3.700898 11.129222 -0.327195
-2.779592 12.924945 -0.475530
-2.758550 10.883335 -0.508463
-2.838470 9.706201 -0.556006
-2.929368 8.818866 -0.599790
-1.730402 8.066815 -0.598483
-1.889093 7.467834 -0.632631
-2.035596 6.975669 -0.665278
-2.152971 6.489092 -0.693385
-1.314114 6.146559 -0.687926
-1.455379 5.767274 -0.707475
-1.589025 5.451354 -0.730319
-1.703061 5.138456 -0.749717
-1.058866 4.964966 -0.745034
-1.300691 4.470898 -0.773093
-1.408034 4.249796 -0.789170
-7.151975 33.690222 0.023443
-3.167532 12.635498 -0.116864
-3.264371 11.271874 -0.214260
-3.675800 11.168059 -0.328004
-2.743861 12.951986 -0.476213
-2.719328 10.868489 -0.507377
-2.809233 9.716781 -0.556116
-2.899805 8.820228 -0.599274
-1.705645 8.072086 -0.598483
-1.867139 7.477462 -0.632958
-2.013357 6.979011 -0.665004
-2.133984 6.498503 -0.693688
-1.296275 6.155426 -0.688470
-1.436959 5.768821 -0.707121
-1.572842 5.458109 -0.730574
-1.686671 5.141775 -0.749443
-1.036510 4.934302 -0.739951
-1.285332 4.469179 -0.772110
-1.392228 4.245674 -0.787608
-7.001306 33.485896 0.023286
-3.153971 12.747079 -0.117805
-3.230875 11.285681 -0.214333
-3.648331 11.200194 -0.328617
-2.706357 12.971104 -0.476609
-2.686690 10.879690 -0.507513
-2.778037 9.720554 -0.555841
-2.869643 8.819594 -0.598630
-1.681482 8.080211 -0.598700
-1.844667 7.485091 -0.633122
-1.989752 6.977494 -0.664275
-2.112191 6.499342 -0.693082
-1.276577 6.155480 -0.688035
-1.419016 5.772239 -0.707003
-1.558263 5.470540 -0.731595
-1.665688 5.130909 -0.747111
-1.022168 4.941334 -0.740532
-1.269726 4.466459 -0.770964
-1.377676 4.245241 -0.786740
-6.892288 33.476857 0.023265
-3.152562 12.911151 -0.119232
-3.211753 11.350377 -0.215374
-3.618552 11.225605 -0.329036
-2.666348 12.978368 -0.476573
-2.652825 10.885941 -0.507422
-2.746845 9.724227 -0.555567
-2.840737 8.822657 -0.598244
-1.656684 8.085332 -0.598700
-1.819810 7.482968 -0.632467
-1.966174 6.975898 -0.663545
-2.091328 6.502950 -0.692780
-1.261465 6.177873 -0.690102
-1.401769 5.778495 -0.707239
-1.540397 5.471476 -0.731084
-1.652969 5.145426 -0.748483
-1.007201 4.945416 -0.740677
-1.260287 4.485529 -0.773584
-1.363742 4.246635 -0.786219
-6.793722 33.518425 0.023279
-3.147366 13.063667 -0.120551
-3.208690 11.473798 -0.217528
-3.599587 11.285224 -0.330458
-2.626321 12.985508 -0.476537
-2.614978 10.875573 -0.506563
-2.712971 9.718183 -0.554743
-2.811232 8.823724 -0.597728
-1.630096 8.081576 -0.598049
-1.797077 7.489485 -0.632549
-1.937816 6.956955 -0.661175
-2.073177 6.515024 -0.693385
-1.240155 6.170019 -0.688797
-1.385652 5.789528 -0.708066
-1.523338 5.475221 -0.730957
-1.638075 5.153304 -0.748894
-0.994552 4.961094 -0.742565
-1.240449 4.467512 -0.769817
-1.348321 4.243291 -0.784830
-6.674814 33.458695 0.023223
-3.166468 13.322313 -0.122847
-3.169479 11.469133 -0.217254
-3.588413 11.370568 -0.332633
-2.584909 12.985662 -0.476249
-2.579756 10.875768 -0.506201
-2.667477 9.669671 -0.551504
-2.782648 8.827548 -0.597406
-1.605294 8.086540 -0.598049
-1.773632 7.493023 -0.632385
-1.915935 6.960947 -0.660993
-2.050491 6.512813 -0.692477
-1.219484 6.165018 -0.687818
-1.370621 5.805349 -0.709483
-1.503378 5.468392 -0.729426
-1.622555 5.159251 -0.749031
-0.982200 4.978683 -0.744743
-1.226215 4.469394 -0.769489
-1.335296 4.247407 -0.784830
-6.582343 33.531024 0.023259
-3.163697 13.494550 -0.124345
-3.156663 11.560788 -0.218806
-3.526700 11.295647 -0.330123
-2.543904 12.987647 -0.476033
-2.543646 10.871960 -0.505658
-2.628346 9.643128 -0.549528
-2.748719 8.814132 -0.595925
-1.579330 8.085554 -0.597615
-1.749955 7.495518 -0.632139
-1.894831 6.967753 -0.661084
-2.029317 6.515273 -0.692073
-1.198285 6.157021 -0.686512
-1.354156 5.815330 -0.710191
-1.483474 5.461493 -0.727895
-1.607896 5.167988 -0.749580
-0.970126 4.998184 -0.747212
-1.210949 4.467422 -0.768507
-1.320797 4.246781 -0.783962
-6.424830 33.268283 0.023063
-3.161927 13.675662 -0.125924
-3.193051 11.836847 -0.223844
-3.483474 11.278717 -0.329315
-2.497429 12.961046 -0.474775
-2.506686 10.864138 -0.504934
-2.604980 9.674286 -0.550845
-2.706662 8.773890 -0.592640
-1.553764 8.086443 -0.597325
-1.724268 7.489196 -0.631157
-1.874479 6.977381 -0.661448
-2.008733 6.519567 -0.691871
-1.178455 6.155787 -0.685968
