x	y	z
-2.700251 -11.464249 2.517452
-2.263471 -11.495914 2.385478
-0.654983 -4.120651 0.808535
-0.565068 -3.537842 0.558791
-0.705540 -3.561706 0.331334
-0.826887 -3.496155 0.230561
-0.694278 -3.498446 0.195037
-0.540785 -3.350510 0.029440
-0.853517 -3.596974 -0.033165
-0.654825 -3.285828 -0.061173
-0.528572 -3.262169 -0.092194
-0.926174 -3.895303 -0.181326
-0.670496 -3.356517 -0.188190
-0.529879 -3.263382 -0.213392
-2.304811 -11.586574 3.344913
-1.846051 -11.519526 3.183280
-3.200529 -11.487411 3.146250
-2.740444 -11.488530 2.988168
-2.299310 -11.513754 2.849800
-1.861130 -11.531167 2.715964
-3.183785 -11.440440 2.662472
-2.735183 -11.454960 2.517243
-2.299883 -11.494681 2.386675
-0.658982 -4.065323 0.798072
-0.574966 -3.530241 0.557867
-0.693942 -3.454176 0.451456
-0.569798 -3.487002 0.418938
-0.842973 -3.518143 0.364094
-0.702315 -3.489232 0.324791
-0.564724 -3.445371 0.285507
-0.702836 -3.485532 0.194436
-0.572216 -3.479664 0.159393
-0.875180 -3.641894 0.103315
-0.674537 -3.337971 0.061523
-0.551711 -3.352782 0.029475
-0.868056 -3.608922 -0.033300
-0.670855 -3.313202 -0.061721
-0.540369 -3.271381 -0.092500
-0.940929 -3.904097 -0.181869
-0.686550 -3.382821 -0.189782
-0.544125 -3.287339 -0.215066
-2.335773 -11.556814 3.338374
-1.884806 -11.534755 3.189071
-3.232871 -11.467301 3.143444
-2.774538 -11.475357 2.986941
-2.334623 -11.506646 2.849800
-1.897289 -11.530208 2.717096
-3.217811 -11.426861 2.661597
-2.771924 -11.453168 2.518706
-2.335527 -11.489492 2.387074
-0.664409 -4.020663 0.789701
-0.590001 -3.553803 0.561874
-0.706916 -3.463694 0.452982
-0.580004 -3.482299 0.418585
-0.850476 -3.502004 0.362692
-0.711221 -3.478280 0.323973
-0.573978 -3.435758 0.284855
-0.711523 -3.473578 0.193890
-0.576449 -3.439468 0.157632
-0.902671 -3.706207 0.105217
-0.688393 -3.353516 0.061848
-0.564311 -3.364881 0.029596
-0.886939 -3.638301 -0.033596
-0.682427 -3.317983 -0.061848
-0.551399 -3.275622 -0.092668
-0.953139 -3.902163 -0.181914
-0.700151 -3.396346 -0.190660
-0.556532 -3.299430 -0.215968
-2.370250 -11.544881 3.337012
-1.920661 -11.531772 3.189861
-3.269363 -11.461978 3.144720
-2.814807 -11.487505 2.992337
-2.374033 -11.519416 2.854753
-1.934748 -11.536821 2.720041
-3.254189 -11.421627 2.662691
-2.807515 -11.446510 2.519124
-2.370964 -11.483232 2.387274
-0.678045 -4.026351 0.791223
-0.596946 -3.528595 0.558175
-0.724586 -3.495502 0.457430
-0.592845 -3.493231 0.420116
-0.721484 -3.474131 0.323791
-0.586523 -3.445771 0.285833
-0.720549 -3.463558 0.193454
-0.590698 -3.459347 0.158625
-0.912360 -3.696627 0.105024
-0.701331 -3.364112 0.062083
-0.579852 -3.393690 0.029865
-0.896898 -3.630709 -0.033551
-0.696896 -3.336427 -0.062232
-0.562966 -3.282782 -0.092919
-0.969186 -3.915705 -0.182683
-0.714455 -3.412751 -0.191703
-0.567497 -3.302625 -0.216290
-2.404676 -11.532845 3.335650
-1.957968 -11.537239 3.193020
-3.303440 -11.448178 3.143699
-2.852139 -11.487284 2.994545
-2.409761 -11.513982 2.855224
-1.969313 -11.526030 2.718908
-3.293269 -11.425654 2.665973
-2.844977 -11.447333 2.521214
-2.406786 -11.478780 2.387872
-0.687905 -4.009738 0.788369
-0.607097 -3.522852 0.557559
-0.737554 -3.503940 0.458828
-0.603052 -3.488460 0.419762
-0.729262 -3.458260 0.322519
-0.596240 -3.439046 0.285426
-0.729934 -3.455469 0.193126
-0.598227 -3.439803 0.157812
-0.929517 -3.717085 0.105686
-0.713305 -3.369770 0.062228
-0.581861 -3.343622 0.029440
-0.910703 -3.638611 -0.033650
-0.707544 -3.336229 -0.062268
-0.573035 -3.281040 -0.092919
-0.979251 -3.904962 -0.182321
-0.736547 -3.465237 -0.194778
-0.575734 -3.290055 -0.215582
-2.441243 -11.531061 3.337285
-1.997298 -11.553994 3.199337
-3.338547 -11.437989 3.143699
-2.891861 -11.496342 2.999205
-2.445478 -11.508435 2.855696
-2.005834 -11.526651 2.720494
-3.330219 -11.422054 2.667504
-2.883666 -11.452775 2.524350
-2.441583 -11.469426 2.387473
-0.699865 -4.005674 0.787989
-0.617219 -3.517080 0.556942
-0.748715 -3.503600 0.459082
-0.615473 -3.496374 0.420940
-0.738409 -3.449189 0.321883
-0.606268 -3.434256 0.285181
-0.741160 -3.456143 0.193290
-0.610868 -3.449756 0.158354
-0.938707 -3.705494 0.105438
-0.729942 -3.396891 0.062770
-0.594733 -3.356590 0.029570
-0.921862 -3.635800 -0.033650
-0.723247 -3.359456 -0.062743
-0.573649 -3.226121 -0.091413
-0.992211 -3.905812 -0.182502
-0.745279 -3.454176 -0.194284
-0.587750 -3.299080 -0.216290
-2.478023 -11.530102 3.339191
-2.034576 -11.558262 3.202233
-3.375539 -11.434184 3.145485
-2.929273 -11.495871 3.001412
-2.480979 -11.501828 2.855932
-2.041358 -11.521402 2.720720
-3.369937 -11.427693 2.671223
-2.922172 -11.457140 2.527276
-2.477794 -11.466671 2.388471
-0.711635 -4.000609 0.787418
-0.628354 -3.517115 0.557250
-0.628649 -3.508154 0.422588
-0.750891 -3.455666 0.322700
-0.615215 -3.423551 0.284448
-0.752609 -3.457755 0.193508
-0.622512 -3.453764 0.158625
-0.956531 -3.727771 0.106155
-0.745473 -3.418081 0.063203
-0.612482 -3.396082 0.029935
-0.933012 -3.632954 -0.033650
-0.733550 -3.357222 -0.062743
-0.578737 -3.197788 -0.090660
-1.003691 -3.900815 -0.182411
-0.765484 -3.495766 -0.196754
-0.599471 -3.306099 -0.216870
-2.517282 -11.540307 3.344368
-2.071218 -11.558614 3.204075
-3.413369 -11.433039 3.148036
-2.965497 -11.490585 3.002394
-2.518541 -11.504605 2.858527
-2.076523 -11.514127 2.720494
-3.402750 -11.409821 2.669473
-2.957308 -11.448122 2.527276
-2.515271 -11.469544 2.390665
-0.746643 -4.123991 0.812150
-0.639495 -3.517115 0.557559
-0.638874 -3.503277 0.422235
-0.762990 -3.460154 0.323337
-0.624640 -3.415765 0.283959
-0.762783 -3.453480 0.193399
-0.631122 -3.441030 0.158128
-0.772376 -3.489970 0.064576
-0.612249 -3.336158 0.029423
-0.947426 -3.642656 -0.033766
-0.751205 -3.388143 -0.063364
-0.592709 -3.218608 -0.091301
-0.776422 -3.494375 -0.196809
-0.611241 -3.313076 -0.217449
-2.552259 -11.530650 3.343823
-2.107707 -11.557899 3.205655
-3.450665 -11.429918 3.150077
-2.999019 -11.474867 3.000676
-2.553824 -11.496824 2.858527
-2.113948 -11.519198 2.723211
-3.441120 -11.410538 2.672099
-2.992417 -11.438995 2.527276
-2.550872 -11.463685 2.391065
-0.798243 -4.333123 0.853813
-0.651720 -3.522909 0.558791
-0.651431 -3.511065 0.423412
-0.775994 -3.468487 0.324336
-0.641314 -3.447147 0.286730
-0.775994 -3.462816 0.194054
-0.645341 -3.458718 0.159032
-0.787460 -3.507095 0.064937
-0.623032 -3.337213 0.029449
-0.769715 -3.421915 -0.064039
-0.599636 -3.201054 -0.090855
-0.856302 -3.798803 -0.214102
-0.628949 -3.351398 -0.220090
-2.589309 -11.530277 3.346002
-2.148084 -11.577938 3.213025
-3.488255 -11.427601 3.152373
-3.038426 -11.481545 3.004846
-2.589084 -11.488935 2.858527
-2.150708 -11.520318 2.725023
-3.468142 -11.373793 2.665973
-3.030752 -11.442049 2.529993
-2.587325 -11.461541 2.392262
-0.661612 -3.516038 0.558021
-0.663673 -3.516856 0.424354
-0.792803 -3.493282 0.326881
-0.656705 -3.470625 0.288849
-0.788828 -3.470155 0.194600
-0.657811 -3.466536 0.159483
-0.799548 -3.510512 0.065045
-0.634946 -3.344127 0.029527
-0.789328 -3.459504 -0.064787
-0.610389 -3.204109 -0.090994
-0.874407 -3.824386 -0.215694
-0.647647 -3.393564 -0.222989
-2.631510 -11.552298 3.354720
-2.185026 -11.578877 3.215131
-3.529286 -11.436248 3.157730
-3.078153 -11.489025 3.009261
-2.624319 -11.480938 2.858527
-2.187859 -11.523235 2.727288
-3.512794 -11.394804 2.673411
-3.067108 -11.437420 2.531038
-2.625101 -11.465011 2.394656
-0.674253 -3.523696 0.559562
-0.672775 -3.506026 0.423295
-0.815579 -3.543240 0.331788
-0.675258 -3.509701 0.292272
-0.807546 -3.502746 0.196566
-0.673364 -3.490005 0.160657
-0.816165 -3.533371 0.065515
-0.654301 -3.389292 0.029943
-0.799487 -3.455117 -0.064751
-0.622497 -3.213998 -0.091329
-0.896510 -3.866429 -0.218219
-0.659195 -3.397439 -0.223375
-2.668239 -11.549796 3.356355
-2.222357 -11.581593 3.217764
-3.567811 -11.436443 3.160791
-3.112117 -11.474848 3.008035
-2.661725 -11.482300 2.860885
-2.223940 -11.520294 2.728194
-3.545994 -11.378384 2.672099
-3.103976 -11.434563 2.532501
-2.661149 -11.460722 2.395454
-0.829162 -3.552359 0.332878
-0.690805 -3.532066 0.294310
-0.811697 -3.472056 0.194982
-0.656608 -3.346056 0.029579
-0.647222 -3.287593 -0.093476
-0.911567 -3.877268 -0.218988
-0.670774 -3.401275 -0.223762
-2.703661 -11.541555 3.356355
-2.254923 -11.559570 3.213552
-3.602299 -11.423599 3.160281
-3.147307 -11.465247 3.008035
-2.696717 -11.473134 2.860649
-2.259085 -11.512460 2.727967
-3.588215 -11.390719 2.677568
-3.140597 -11.430644 2.533755
-2.696971 -11.455364 2.396052
-0.698927 -3.535001 0.562028
-0.695240 -3.506703 0.423883
-0.836387 -3.534292 0.331424
-0.699112 -3.517222 0.293250
-0.821654 -3.466634 0.194819
-0.694766 -3.485807 0.160657
-0.865781 -3.646004 0.067701
-0.666675 -3.343045 0.029570
-0.846817 -3.560061 -0.066814
-0.662796 -3.313038 -0.094257
-0.924847 -3.880281 -0.219317
-0.682774 -3.407028 -0.224277
-2.731053 -11.499505 3.346547
-2.289626 -11.548813 3.212499
-3.644670 -11.435524 3.166659
-3.180650 -11.448999 3.006318
-2.731228 -11.461970 2.859942
-2.293823 -11.502610 2.727288
-3.629361 -11.399182 2.682162
-3.177485 -11.427550 2.535219
-2.732103 -11.447036 2.396052
-0.710353 -3.535747 0.562490
-0.705211 -3.500659 0.423412
-0.846065 -3.526868 0.330970
-0.706546 -3.498452 0.291865
-0.898299 -3.738856 0.210271
-0.709026 -3.501284 0.161470
-0.879069 -3.652079 0.067863
-0.677723 -3.344904 0.029605
-0.899919 -3.732403 -0.070100
-0.675943 -3.325682 -0.094676
-0.933230 -3.862867 -0.218494
-0.699993 -3.438165 -0.226467
-2.762492 -11.475170 3.341916
-2.326190 -11.547408 3.214078
-3.681218 -11.428891 3.167934
-3.226780 -11.478384 3.016619
-2.766380 -11.453537 2.859942
-2.332003 -11.509838 2.730685
-3.672087 -11.412144 2.687850
-3.212794 -11.418689 2.535428
-2.765597 -11.431934 2.394656
-0.716258 -3.509348 0.558637
-0.719332 -3.515018 0.425414
-0.855940 -3.520385 0.330607
-0.715873 -3.489434 0.291294
-0.908112 -3.729292 0.209889
-0.720167 -3.501049 0.161560
-0.889558 -3.646451 0.067809
-0.690602 -3.355542 0.029718
-0.908992 -3.719912 -0.069917
-0.688569 -3.335340 -0.095010
-0.942940 -3.851257 -0.218000
-0.713569 -3.450660 -0.227433
-2.792667 -11.446076 3.335922
-2.368376 -11.573297 3.223291
-3.718958 -11.425818 3.170230
-3.255879 -11.446984 3.010978
-2.802661 -11.449715 2.861121
-2.363180 -11.482595 2.725929
-3.718850 -11.437014 2.696382
-3.248079 -11.409719 2.535636
-2.803923 -11.436720 2.397449
-0.729026 -3.516809 0.560178
-0.730315 -3.513767 0.425532
-0.724746 -3.478440 0.290560
-0.731721 -3.502734 0.161741
-0.903620 -3.655352 0.068026
-0.705394 -3.374941 0.029909
-0.920401 -3.717106 -0.069917
-0.703105 -3.353757 -0.095596
-0.959079 -3.865790 -0.218988
-0.727228 -3.463104 -0.228399
-2.827770 -11.437455 3.335922
-2.407405 -11.582979 3.228030
-3.753692 -11.413436 3.169975
-3.289911 -11.433214 3.009997
-2.840816 -11.453324 2.864188
-2.400191 -11.483871 2.727967
-3.757575 -11.436676 2.699008
-3.283880 -11.402520 2.536264
-2.844667 -11.450887 2.402237
-0.733707 -3.485550 0.555555
-0.738426 -3.498879 0.424001
-0.735208 -3.475225 0.290479
-0.740599 -3.491678 0.161334
-0.917017 -3.661292 0.068188
-0.718444 -3.385478 0.030021
-0.933746 -3.722023 -0.070063
-0.717137 -3.369183 -0.096098
-0.972395 -3.868640 -0.219317
-0.742219 -3.481352 -0.229752
-2.864950 -11.437125 3.338374
-2.441136 -11.567043 3.225661
-3.793874 -11.417465 3.174312
-3.326597 -11.428652 3.011469
-2.878783 -11.455865 2.867018
-2.436423 -11.481217 2.729100
-3.798486 -11.442690 2.703164
-3.320488 -11.398024 2.537518
-2.881219 -11.447807 2.403434
-0.740060 -3.462992 0.552319
-0.749781 -3.499510 0.424354
-0.746494 -3.475876 0.290723
-0.752779 -3.496225 0.161650
-0.925294 -3.646831 0.067972
-0.729880 -3.388145 0.030065
-0.941221 -3.703636 -0.069771
-0.728103 -3.369898 -0.096181
-0.985244 -3.869509 -0.219537
-0.753741 -3.482960 -0.230009
-2.903575 -11.442271 3.342461
-2.480856 -11.579309 3.231189
-3.833808 -11.420439 3.178394
-3.367394 -11.437922 3.016619
-2.917512 -11.461105 2.870556
-2.473686 -11.483211 2.731365
-3.836056 -11.438383 2.704914
-3.359587 -11.401855 2.540653
-2.918506 -11.447460 2.405229
-0.760107 -3.504157 0.559254
-0.762624 -3.506897 0.425532
-0.759914 -3.486229 0.291783
-0.768621 -3.517322 0.162734
-0.936478 -3.643976 0.067972
-0.740271 -3.385890 0.030065
-0.746789 -3.405729 -0.097269
-0.999605 -3.876137 -0.220086
-0.774270 -3.525467 -0.232972
-2.938666 -11.433310 3.342461
-2.516780 -11.573528 3.231715
-3.872553 -11.419611 3.181455
-3.401639 -11.424750 3.015883
-2.953388 -11.454923 2.871264
-2.509529 -11.478422 2.732044
-3.874261 -11.435803 2.707102
-3.403767 -11.422421 2.547551
-2.957288 -11.452684 2.408222
-0.763419 -3.468035 0.553860
-0.775733 -3.515207 0.426827
-0.774911 -3.503344 0.293413
-0.778327 -3.510071 0.162508
-0.752388 -3.391413 0.030134
-0.762010 -3.424888 -0.097882
-1.010735 -3.870153 -0.219921
-0.839562 -3.767557 -0.249139
-2.984636 -11.466141 3.354720
-2.554146 -11.574232 3.234084
-3.908510 -11.410421 3.182220
-3.441984 -11.431898 3.020544
-2.997846 -11.481538 2.880227
-2.544943 -11.471619 2.732271
-3.917541 -11.447866 2.712790
-3.443027 -11.425969 2.550686
-2.998607 -11.467258 2.413210
-0.782175 -3.493430 0.424472
-0.786746 -3.505813 0.293821
-0.785803 -3.493047 0.161831
-0.786942 -3.496400 0.031088
-0.776255 -3.439111 -0.098357
-0.866740 -3.834073 -0.253713
-3.019554 -11.456000 3.354448
-2.591540 -11.574814 3.236453
-3.943498 -11.398376 3.182220
-3.475064 -11.414792 3.018827
-3.028835 -11.456316 2.876217
-2.580767 -11.466608 2.732950
-3.957107 -11.448705 2.715853
-3.483481 -11.433126 2.554658
-3.032771 -11.454215 2.412412
-0.794868 -3.499729 0.425532
-0.799711 -3.513101 0.294636
-0.795849 -3.487698 0.161696
-0.801003 -3.508592 0.031218
-0.789926 -3.450355 -0.098747
-0.877830 -3.828477 -0.253519
-0.228045 -0.990682 -0.300240
-3.058160 -11.459698 3.358262
-2.628962 -11.575276 3.238822
-3.982914 -11.399003 3.185792
-3.512349 -11.411490 3.020789
-3.066983 -11.458234 2.879048
-2.617451 -11.465285 2.734535
-3.994464 -11.442959 2.717384
-3.525162 -11.443880 2.559465
-3.073987 -11.467572 2.417200
-2.256983 -6.466678 0.757614
-0.817435 -3.540736 0.297162
-0.806771 -3.486214 0.161741
-0.829131 -3.581131 0.031886
-0.803899 -3.462521 -0.099165
-0.891379 -3.833542 -0.254035
-3.099577 -11.473483 3.365072
-2.666627 -11.576557 3.241455
-4.022050 -11.398584 3.189108
-3.552527 -11.417322 3.025204
-3.101614 -11.446895 2.878576
-2.652614 -11.457200 2.734535
-4.031823 -11.437092 2.718916
-3.561999 -11.438613 2.560719
-3.110694 -11.463762 2.418397
-2.293332 -6.506595 0.763111
-0.826477 -3.530448 0.296510
-0.823680 -3.498959 -0.100281
-0.908174 -3.852158 -0.255452
-3.133747 -11.460207 3.363983
-2.699498 -11.557048 3.238296
-4.061220 -11.398031 3.192425
-3.591320 -11.418392 3.028392
-3.138774 -11.444823 2.880463
-2.696879 -11.487886 2.743821
-4.064929 -11.419154 2.717603
-3.596195 -11.424833 2.560092
-3.146628 -11.456999 2.418995
-2.296286 -6.451772 0.757504
-0.821193 -3.460014 0.290805
-2.165230 -6.075156 0.475770
-0.879241 -3.695978 0.171720
-0.867991 -3.646990 0.032519
-0.871305 -3.651012 -0.104715
-0.916740 -3.835765 -0.254550
-3.176078 -11.476505 3.371611
-2.724271 -11.503650 3.225661
-4.104680 -11.409173 3.199058
-3.633383 -11.429493 3.034279
-3.175171 -11.439822 2.881642
-2.729855 -11.470082 2.741556
-4.105224 -11.421321 2.721104
-3.635972 -11.428657 2.563436
-3.187274 -11.467117 2.423185
-2.285480 -6.359578 0.747499
-2.109903 -5.862979 0.459659
-0.890810 -3.694235 0.171765
-0.875423 -3.628757 0.032381
-0.900833 -3.724106 -0.106890
-0.928504 -3.832935 -0.254550
-3.219316 -11.495429 3.380056
-2.757974 -11.488672 3.223818
-4.133062 -11.378350 3.193955
-3.671989 -11.429368 3.037222
-3.212355 -11.437511 2.883529
-2.767088 -11.470175 2.743595
-4.144572 -11.420597 2.723948
-3.678202 -11.439791 2.568453
-3.223766 -11.462001 2.424182
-2.280570 -6.285264 0.739583
-2.147293 -5.909907 0.463852
-0.910914 -3.727390 0.173436
-0.891777 -3.647423 0.032572
-0.911541 -3.718412 -0.106806
-0.944541 -3.847513 -0.255709
-2.788190 -11.459534 3.218027
-4.177272 -11.391035 3.201098
-3.709731 -11.426348 3.039430
-3.251680 -11.442558 2.887303
-2.801571 -11.458794 2.742915
-4.184626 -11.421571 2.727229
-3.720232 -11.449844 2.573260
-3.259720 -11.454884 2.424781
-2.284800 -6.237173 0.734746
-2.153737 -5.871457 0.461351
-0.921865 -3.722638 0.173345
-0.906089 -3.657289 0.032684
-0.923185 -3.716568 -0.106834
-0.957545 -3.849439 -0.256031
-2.826337 -11.463103 3.221449
-4.210856 -11.374539 3.200078
-3.750209 -11.431493 3.043845
-3.291334 -11.448406 2.891313
-2.836010 -11.447308 2.742236
-4.226078 -11.426067 2.731386
-3.758087 -11.446739 2.575141
-3.298643 -11.458013 2.427574
-2.292548 -6.199370 0.731118
-0.937901 -3.738203 0.174203
-0.918279 -3.658371 0.032719
-0.931656 -3.702085 -0.106499
-0.972521 -3.859063 -0.256869
-2.862661 -11.459058 3.222765
-4.241333 -11.349791 3.196762
-3.788923 -11.430977 3.046788
-3.330513 -11.452251 2.894851
-2.871354 -11.439498 2.742462
-4.267598 -11.430417 2.735543
-3.795958 -11.443509 2.577023
-3.338438 -11.463832 2.430966
-4.252655 -11.390396 2.256496
-2.298000 -6.155992 0.726830
-0.950596 -3.740149 0.174429
-1.945970 -5.201041 0.206440
-0.930977 -3.661351 0.032771
-0.931404 -3.653684 -0.105189
-0.987071 -3.866697 -0.257577
-2.898040 -11.451157 3.223028
-4.288419 -11.369295 3.205945
-3.825822 -11.424815 3.048260
-3.365632 -11.441979 2.894851
-2.907156 -11.433467 2.743142
-4.304022 -11.420923 2.736418
-3.834156 -11.441081 2.579113
-3.375254 -11.459177 2.432162
-4.289314 -11.381895 2.257408
-2.229261 -5.916387 0.699344
-2.279759 -6.785086 0.720378
-1.925200 -5.097821 0.202576
-0.944450 -3.667193 0.032849
-0.999679 -3.866549 -0.257770
-2.940345 -11.470248 3.230925
-4.337728 -11.394037 3.216660
-3.862097 -11.416697 3.049241
-3.400442 -11.430669 2.894615
-2.945378 -11.436756 2.746086
-4.338000 -11.404928 2.735762
-3.874570 -11.445011 2.582666
-3.414591 -11.462854 2.435155
-4.326660 -11.375115 2.258685
-2.229383 -5.862139 0.693737
-2.235008 -6.584912 0.699850
-1.976779 -5.186202 0.206328
-1.010525 -3.859602 -0.257513
-2.979400 -11.476113 3.235137
-4.379947 -11.399630 3.222017
-3.897732 -11.406629 3.049731
-3.439134 -11.432280 2.897681
-2.984630 -11.443688 2.749936
-4.370871 -11.386100 2.734449
-3.912828 -11.442324 2.584756
-3.452003 -11.459831 2.436751
-4.362595 -11.364541 2.259233
-2.208892 -5.755055 0.681863
-1.941016 -5.045807 0.200979
-3.017783 -11.479047 3.238559
-4.422240 -11.405071 3.227374
-3.933657 -11.397366 3.050467
-3.475606 -11.426324 2.898861
-3.021714 -11.442012 2.751748
-4.416710 -11.400843 2.741231
-3.951426 -11.440433 2.587056
-3.489429 -11.456685 2.438347
-4.399216 -11.355687 2.260145
-2.257771 -5.828886 0.691428
-2.255511 -6.513722 0.693742
-1.966613 -5.065912 0.202019
-3.055219 -11.478126 3.240928
-4.470950 -11.426567 3.237324
-3.969563 -11.387991 3.051203
-3.514073 -11.426753 2.901691
-3.059823 -11.443979 2.754466
-4.454864 -11.395419 2.743200
-3.988439 -11.433796 2.588310
-3.527734 -11.456227 2.440542
-4.431528 -11.335727 2.258868
-2.255018 -5.769165 0.685162
-2.279097 -6.517103 0.694843
-2.010577 -5.132431 0.204917
-3.092176 -11.475219 3.242771
-4.504210 -11.408300 3.236048
-4.005448 -11.378502 3.051939
-3.554018 -11.431694 2.905701
-3.096954 -11.442059 2.756278
-4.491952 -11.387144 2.744512
-4.026423 -11.429807 2.590191
-3.567233 -11.459385 2.443534
-4.486129 -11.372382 2.268904
-2.231498 -5.657738 0.672738
-2.247725 -6.364661 0.679322
-1.991048 -5.037022 0.201350
-3.130668 -11.477777 3.246193
-4.545272 -11.409698 3.240385
-4.043260 -11.374382 3.054146
-3.595483 -11.441132 2.910890
-3.138477 -11.455989 2.761940
-4.528670 -11.377842 2.745606
-4.066386 -11.431221 2.593326
-3.605903 -11.459603 2.445928
-4.531179 -11.384143 2.274013
-2.227162 -5.596379 0.666251
-2.145590 -6.016607 0.642873
-2.006862 -5.031818 0.201387
-3.174595 -11.499737 3.255143
-4.582419 -11.401082 3.241916
-4.080429 -11.368310 3.055863
-3.629684 -11.427269 2.910183
-3.173088 -11.444428 2.761487
-4.566465 -11.371138 2.747357
-4.106727 -11.433417 2.596671
-3.641934 -11.451288 2.446527
-4.564251 -11.365627 2.273101
-2.226914 -5.546169 0.661084
-2.020425 -5.021002 0.201202
-3.211418 -11.495518 3.256722
-4.631545 -11.421916 3.251865
-4.117600 -11.362118 3.057580
-3.668884 -11.429034 2.913485
-3.211868 -11.447769 2.764657
-4.609757 -11.377876 2.752388
-4.141785 -11.420764 2.596671
-3.680647 -11.451256 2.448921
-4.596884 -11.346103 2.272006
-2.243173 -5.537468 0.660864
-2.243658 -6.171646 0.660897
-2.035443 -5.013854 0.201165
-3.244833 -11.479113 3.254879
-4.664003 -11.401389 3.250079
-4.156103 -11.359447 3.060278
-3.706029 -11.424194 2.915136
-3.249634 -11.447231 2.766922
-4.652025 -11.381745 2.756764
-4.180166 -11.417186 2.598761
-3.718789 -11.449229 2.450916
-4.632416 -11.333767 2.272371
-2.223303 -5.440393 0.650090
-2.276980 -6.203964 0.665103
-1.838523 -5.007163 0.342319
-2.020518 -4.933604 0.198193
-3.280301 -11.470031 3.255143
-4.700804 -11.391495 3.251355
-4.194629 -11.356647 3.062976
-3.742877 -11.418311 2.916551
-3.289578 -11.454059 2.770999
-4.681343 -11.353888 2.753482
-4.215174 -11.404308 2.598761
-3.760009 -11.456386 2.454906
-4.679159 -11.348588 2.278210
-2.234680 -5.420682 0.648551
-2.204398 -5.949705 0.638567
-1.863241 -5.026763 0.344048
-2.045184 -4.950472 0.199121
-3.317352 -11.466401 3.256985
-4.737589 -11.381483 3.252630
-4.240627 -11.373700 3.071070
-3.784612 -11.427069 2.921740
-3.329594 -11.460749 2.775076
-4.728520 -11.369203 2.760702
-4.252876 -11.398652 2.600433
-3.797914 -11.453168 2.456702
-3.344634 -11.483336 2.317738
-4.725280 -11.361415 2.283684
-2.239087 -5.384432 0.645033
-2.230657 -5.964348 0.640870
-1.873408 -5.007003 0.343087
-2.017694 -4.841786 0.194998
-3.354140 -11.461725 3.258565
-4.775853 -11.374918 3.254926
-4.289501 -11.397837 3.081126
-3.820268 -11.417247 2.922212
-3.365564 -11.453283 2.775755
-4.765643 -11.360041 2.762014
-4.298856 -11.414836 2.607122
-3.835836 -11.449825 2.458497
-3.379572 -11.472079 2.317547
-4.764679 -11.357744 2.285874
-2.269052 -5.409618 0.648881
-2.220130 -5.881147 0.632659
-1.895812 -5.019904 0.344368
-2.061580 -4.904665 0.197784
-2.008568 -4.773645 0.003525
-3.386003 -11.440280 3.255406
-4.825433 -11.394937 3.264876
-4.334433 -11.410905 3.088239
-3.858079 -11.413759 2.924335
-3.400963 -11.443838 2.775981
-4.809218 -11.366036 2.767046
-4.334898 -11.404336 2.607749
-3.873458 -11.445428 2.460093
-3.415312 -11.463538 2.317928
-4.806781 -11.360277 2.289341
-2.270534 -5.366931 0.644593
-2.225764 -5.841766 0.629154
-2.179191 -6.414805 0.618229
-2.145568 -5.065384 0.405806
-1.906939 -5.002874 0.343599
-2.080128 -4.906598 0.198118
-3.420809 -11.428914 3.255143
-4.875181 -11.414758 3.274825
-4.375320 -11.412942 3.092409
-3.890879 -11.395431 2.922684
-3.432412 -11.421224 2.773037
-4.849810 -11.364691 2.770328
-4.367765 -11.385505 2.606495
-3.909505 -11.436272 2.460692
-3.447350 -11.442666 2.315835
-4.850101 -11.365371 2.293356
-2.297131 -5.383709 0.647451
-2.186579 -6.372295 0.614776
-2.111733 -4.943222 0.396536
-1.919412 -4.989549 0.343087
-2.052349 -4.800039 0.194069
-1.983108 -5.147083 0.152146
-2.010670 -4.697797 0.003478
-3.460327 -11.433139 3.259354
-4.896025 -11.366891 3.265386
-4.415561 -11.413027 3.096088
-3.919802 -11.365986 2.918202
-3.468852 -11.415299 2.774170
-4.895455 -11.374854 2.776453
-4.399850 -11.364756 2.604823
-3.944573 -11.424224 2.460692
-3.479865 -11.423584 2.314123
-4.893109 -11.369403 2.297188
-2.269242 -5.273467 0.635028
-2.143462 -4.975188 0.399626
-1.936878 -4.989219 0.343471
-2.043720 -4.739580 0.191877
-2.007221 -5.162403 0.152780
-1.996937 -4.626419 0.003430
-3.499904 -11.437229 3.263566
-4.940506 -11.373987 3.271764
-4.459721 -11.422907 3.102465
-3.960727 -11.371343 2.922684
-3.502427 -11.399947 2.773037
-4.936157 -11.373208 2.779735
-4.438966 -11.362134 2.607331
-3.980249 -11.413919 2.461091
-3.523276 -11.440064 2.319640
-4.944799 -11.393121 2.305034
-2.315877 -5.336688 0.643493
-1.951083 -4.980465 0.343279
-2.090530 -4.807517 0.194886
-2.023415 -5.157151 0.152808
-2.004336 -4.604684 0.003418
-3.536688 -11.431968 3.265146
-4.974214 -11.356120 3.270998
-4.499365 -11.420896 3.105654
-3.993660 -11.353637 2.921269
-3.541141 -11.401241 2.775981
-4.973374 -11.363374 2.781048
-4.482411 -11.370296 2.612347
-4.016224 -11.404427 2.461689
-3.557481 -11.426388 2.319069
-4.984854 -11.389606 2.307406
-2.297971 -5.251249 0.634038
-2.233852 -6.319977 0.611686
-2.123522 -4.846846 0.390357
-1.965987 -4.973528 0.343215
-2.068750 -4.717798 0.191506
-2.003167 -5.059834 0.150106
-1.970625 -4.489547 0.003337
-3.573472 -11.426588 3.266725
-4.546200 -11.436768 3.113748
-4.042786 -11.381624 2.931647
-3.579604 -11.401475 2.778699
-5.010576 -11.353419 2.782360
-4.525587 -11.377390 2.617155
-4.051193 -11.392052 2.461689
-3.597235 -11.430404 2.322113
-5.023744 -11.383254 2.309231
-2.314472 -5.245084 0.634148
-2.183519 -4.942478 0.398596
-1.972364 -4.945226 0.341678
-2.086447 -4.718741 0.191803
-2.009782 -5.031386 0.149444
-2.004221 -4.528288 0.003371
-3.614326 -11.433968 3.271990
-4.584875 -11.431765 3.116201
-4.085888 -11.392036 2.937544
-3.614566 -11.390439 2.778699
-5.048955 -11.346016 2.784329
-4.567027 -11.379788 2.620917
-4.093410 -11.399859 2.466078
-3.630798 -11.414635 2.321162
-5.068637 -11.390246 2.313793
-2.365301 -5.316055 0.643603
-2.172295 -4.876541 0.393814
-1.981193 -4.923413 0.340589
-1.830834 -5.074783 0.295013
-2.035401 -4.565372 0.185822
-2.005063 -4.492896 0.003349
-3.650269 -11.425583 3.272779
-4.623926 -11.427530 3.118898
-4.124789 -11.390411 2.940374
-3.655146 -11.396919 2.783002
-5.088134 -11.340267 2.786736
-4.598615 -11.357566 2.619036
-4.130034 -11.391852 2.467076
-3.667303 -11.408116 2.322113
-5.104765 -11.377332 2.314340
-2.353121 -5.245293 0.635907
-2.262641 -6.218667 0.603870
-2.217482 -4.937175 0.399259
-2.005297 -4.939504 0.342126
-1.847078 -5.071019 0.295122
-2.083814 -4.635668 0.188942
-2.000373 -4.445686 0.003318
-3.687083 -11.419838 3.274359
-4.662261 -11.421369 3.121106
-4.163052 -11.386830 2.942733
-3.703007 -11.425493 2.792741
-5.126923 -11.333493 2.788923
-4.642683 -11.366036 2.624261
-4.164965 -11.379128 2.467076
-3.706229 -11.408950 2.324586
-5.144914 -11.373263 2.316712
-2.400332 -5.306876 0.644263
-2.242081 -4.951244 0.400951
-1.862627 -5.065328 0.295122
-2.092663 -4.617420 0.188459
-2.017720 -4.447724 0.003324
-3.723000 -11.411225 3.275148
-4.699494 -11.412389 3.122577
-4.223876 -11.444203 2.960895
-3.741377 -11.424261 2.795232
-5.168958 -11.333691 2.792861
-4.693924 -11.391522 2.633458
-4.199856 -11.366297 2.467076
-3.745806 -11.411517 2.327440
-5.184270 -11.367265 2.318720
-2.375363 -5.209052 0.633269
-2.236940 -5.416672 0.589801
-2.184074 -5.889998 0.573245
-1.872599 -5.044612 0.294248
-2.087300 -4.568259 0.186713
-1.992264 -4.815142 0.143737
-1.997251 -4.366942 0.003269
-3.759803 -11.405246 3.276728
-4.735600 -11.400604 3.123313
-4.260324 -11.434833 2.961838
-3.777021 -11.414578 2.795685
-5.207374 -11.325759 2.794830
-4.734856 -11.391516 2.636803
-4.240529 -11.368966 2.470467
-3.786361 -11.416744 2.330864
-5.229799 -11.374533 2.323464
-2.456514 -5.343523 0.650530
-2.245896 -5.391414 0.587798
-2.205275 -5.891664 0.574063
-1.884213 -5.028558 0.293648
-2.082074 -4.520082 0.185005
-2.030318 -4.403476 0.003301
-3.798130 -11.403725 3.279623
-4.770554 -11.386021 3.123313
-4.298121 -11.428986 2.963725
-3.811405 -11.401089 2.795232
-5.249072 -11.324780 2.798550
-4.776966 -11.394072 2.640774
-4.278496 -11.364156 2.472263
-3.823241 -11.410659 2.332006
-5.270046 -11.370031 2.325836
-2.413550 -5.207906 0.634918
-2.215404 -5.272589 0.575582
-1.895746 -5.012480 0.293047
-2.103086 -4.529081 0.185636
-2.097011 -4.981563 0.149086
-1.981016 -4.262108 0.003199
-3.838021 -11.406649 3.283835
-4.806973 -11.374904 3.124294
-4.333510 -11.416653 2.963961
-3.848546 -11.395802 2.796818
-5.298661 -11.340447 2.806425
-4.818756 -11.395575 2.644537
-4.317169 -11.361052 2.474457
-3.859175 -11.401666 2.332577
-5.306569 -11.357373 2.326566
-2.456861 -5.259010 0.642064
-2.222252 -5.243781 0.573178
-2.086673 -4.921944 0.343087
-1.909335 -5.001976 0.292774
-2.124597 -4.538899 0.186305
-2.023214 -4.765318 0.142799
-2.007235 -4.284082 0.003220
-3.874860 -11.400302 3.285414
-4.847930 -11.374372 3.128219
-4.376164 -11.423269 2.969150
-3.886006 -11.391316 2.798630
-5.341328 -11.340911 2.810582
-4.851776 -11.376239 2.643492
-4.355513 -11.356904 2.476452
-3.897948 -11.400920 2.334860
-5.340131 -11.338370 2.326019
-2.411583 -5.121061 0.626122
-2.216040 -5.184788 0.567471
-2.290973 -4.859439 0.396316
-2.119418 -4.956811 0.345969
-1.923595 -4.993300 0.292610
-2.121882 -4.497113 0.184856
-2.033496 -4.748980 0.142496
-1.978091 -4.188385 0.003153
-3.912011 -11.394747 3.287257
-4.894288 -11.386165 3.135577
-4.420300 -11.433357 2.975283
-3.935215 -11.420780 2.808821
-5.384047 -11.341219 2.814739
-4.885496 -11.358606 2.642865
-4.397055 -11.360851 2.480243
-3.939636 -11.408395 2.338855
-5.377422 -11.327263 2.327114
-2.521902 -5.312976 0.650530
-2.198459 -5.100300 0.558959
-2.197029 -6.325989 0.547623
-2.139357 -4.961282 0.346738
-1.939267 -4.988305 0.292665
-2.112063 -4.440947 0.182813
-2.046471 -4.739048 0.142385
-1.954827 -4.106452 0.003096
-2.000565 -4.630079 -0.045249
-3.960541 -11.421885 3.298576
-4.929198 -11.371096 3.135577
-4.461007 -11.434226 2.979057
-3.981439 -11.440850 2.816748
-5.429766 -11.347533 2.820427
-4.921488 -11.346256 2.643492
-4.442227 -11.373777 2.486029
-3.976558 -11.401816 2.339996
-5.410450 -11.307164 2.326384
-2.517600 -5.262177 0.645252
-2.223219 -5.114519 0.561262
-2.198283 -6.267491 0.543140
-2.122731 -4.881482 0.341614
-1.953832 -4.980474 0.292556
-2.107535 -4.396599 0.181252
-2.087741 -4.794152 0.144233
-2.003177 -4.597334 -0.044989
-3.999710 -11.421518 3.301998
-4.962119 -11.351478 3.134351
-4.502118 -11.435858 2.983067
-4.016520 -11.428581 2.816748
-5.457349 -11.315879 2.816708
-4.964113 -11.349023 2.647672
-4.483568 -11.376504 2.489620
-4.013150 -11.394193 2.340947
-5.461344 -11.324165 2.333318
-2.483653 -5.150575 0.632499
-2.217330 -5.058465 0.555855
-2.157736 -4.920644 0.344816
-1.973880 -4.986525 0.293265
-2.127535 -4.403609 0.181810
-2.097215 -4.775826 0.143874
-2.021781 -4.180805 0.003161
-1.994344 -4.538984 -0.044478
-4.036340 -11.413741 3.303314
-5.005133 -11.354831 3.139501
-4.536105 -11.419283 2.982359
-4.052215 -11.418041 2.817201
-5.518913 -11.354372 2.830491
-5.003249 -11.343582 2.649971
-4.522794 -11.373622 2.492014
-4.053023 -11.395701 2.343801
-5.499500 -11.314431 2.334778
-2.550709 -5.248418 0.645472
-1.988799 -4.979519 0.293211
-1.827728 -5.101963 0.244959
-2.131410 -4.377296 0.180992
-2.014006 -4.132333 0.003129
-2.005830 -4.527359 -0.044424
-4.072635 -11.404938 3.304367
-5.051758 -11.365998 3.146860
-4.573649 -11.411626 2.984010
-4.095441 -11.428477 2.822863
-5.565312 -11.361047 2.836397
-5.049153 -11.353197 2.655824
-4.561315 -11.368787 2.494009
-4.088297 -11.384137 2.343991
-5.538511 -11.306335 2.336602
-2.545814 -5.197722 0.640195
-2.159736 -5.980765 0.519993
-2.004440 -4.974320 0.293265
-1.842692 -5.094453 0.244869
-2.129421 -4.339337 0.179692
-2.025005 -4.535587 0.137009
-2.028271 -5.027386 0.097939
-2.051363 -4.176399 0.003167
-1.983437 -4.033837 -0.161685
-4.109242 -11.396928 3.305683
-5.100877 -11.382295 3.155690
-4.606816 -11.393036 2.982831
-4.140756 -11.444252 2.829884
-5.604892 -11.353543 2.838804
-5.091563 -11.354607 2.659795
-4.600953 -11.366547 2.496602
-4.129227 -11.388153 2.347416
-5.578395 -11.299869 2.338792
-2.572747 -5.212168 0.642944
-2.355144 -5.241136 0.578285
-2.723449 -6.705998 0.660486
-2.148373 -5.892645 0.512902
-2.020068 -4.969072 0.293320
-1.864824 -5.106605 0.245727
-2.149812 -4.347115 0.180287
-2.017163 -4.481042 0.135547
-2.009009 -4.935941 0.096277
-2.078806 -4.199661 0.003190
-1.981829 -4.400086 -0.043293
-1.994029 -4.024151 -0.161541
-4.145178 -11.386986 3.306473
-5.138967 -11.373660 3.157652
-4.647987 -11.394146 2.986841
-4.178521 -11.438814 2.831696
-5.643610 -11.344157 2.840773
-5.135640 -11.359427 2.664603
-4.639878 -11.362358 2.498797
-4.166171 -11.380963 2.348557
-5.630554 -11.317914 2.346091
-2.610859 -5.248747 0.648441
-2.319887 -5.120599 0.565768
-2.169196 -5.893509 0.513554
-2.206835 -4.869252 0.343087
-2.014465 -4.912040 0.290317
-1.880482 -5.100859 0.245727
-2.165367 -4.344971 0.180472
-2.042881 -4.501230 0.136347
-1.977052 -4.815066 0.094037
-2.030082 -4.069774 0.003096
-1.976300 -4.352103 -0.042881
-1.977792 -3.960793 -0.159241
-4.184420 -11.385988 3.309895
-5.173837 -11.357840 3.157652
-4.686990 -11.389718 2.989435
-4.218651 -11.439649 2.835093
-5.682323 -11.334640 2.842742
-5.175739 -11.355187 2.667320
-4.682554 -11.367096 2.502987
-4.209235 -11.390229 2.353123
-5.659081 -11.288281 2.343536
-2.594435 -5.175848 0.640415
-2.356255 -5.158709 0.570775
-2.776337 -6.717692 0.663303
-2.182060 -5.872813 0.512332
-2.226740 -4.873351 0.343856
-2.018456 -4.879079 0.288733
-1.891593 -5.082895 0.245140
-2.164785 -4.310624 0.179321
-2.055850 -4.493123 0.136292
-2.022040 -4.881953 0.095464
-2.029085 -4.036723 0.003075
-1.993389 -4.354202 -0.042962
-2.010597 -3.995771 -0.160894
-5.213917 -11.353367 3.160840
-4.712970 -11.353744 2.983774
-4.260184 -11.443996 2.839396
-5.728949 -11.340670 2.848649
-5.227701 -11.376574 2.676099
-4.722293 -11.364440 2.505580
-4.250337 -11.393819 2.356547
-5.721616 -11.326154 2.355032
-2.606718 -5.160766 0.639535
-2.379561 -5.167723 0.572577
-2.207964 -5.296353 0.523627
-2.138552 -4.642614 0.328037
-1.908583 -5.080809 0.245320
-2.150024 -4.248681 0.177017
-1.991747 -4.317961 0.131163
-1.999236 -4.785315 0.093694
-2.027904 -4.003716 0.003055
-2.033137 -4.405266 -0.043527
-1.997087 -3.938778 -0.158846
-5.256870 -11.354911 3.165746
-4.760166 -11.368812 2.991558
-4.298356 -11.439077 2.841435
-5.774338 -11.343910 2.853899
-5.266279 -11.368468 2.677980
-4.763955 -11.366165 2.509171
-4.294613 -11.405531 2.361684
-5.768380 -11.332205 2.359959
-2.641924 -5.190834 0.644263
-2.456986 -5.293064 0.587297
-2.205288 -5.244572 0.519174
-2.070048 -4.918140 0.291791
-1.917787 -5.058116 0.244508
-2.149884 -4.216247 0.175940
-2.038703 -4.384344 0.133369
-2.015849 -4.783766 0.093784
-2.027904 -3.973426 0.003037
-2.004615 -3.923733 -0.158486
-5.297012 -11.350151 3.168934
-4.813926 -11.398916 3.003352
-4.336540 -11.434033 2.843473
-5.812677 -11.333087 2.855649
-5.304442 -11.359346 2.679652
-4.803382 -11.362327 2.511565
-4.330631 -11.395055 2.362255
-5.808504 -11.324953 2.362149
-5.289177 -11.322533 2.193215
-2.322368 -6.087408 0.772527
-2.678247 -5.222503 0.649210
-2.444539 -5.224220 0.580488
-2.082785 -4.906251 0.291464
-1.925085 -5.030749 0.243469
-2.150479 -4.185632 0.174937
-2.088631 -4.455909 0.135740
-2.021521 -4.756395 0.093369
-2.014018 -3.916496 0.002998
-2.007904 -4.281351 -0.042423
-5.338824 -11.348760 3.173104
-4.852302 -11.392140 3.005475
-4.377518 -11.436139 2.847323
-5.854586 -11.329071 2.859150
-5.345514 -11.356291 2.682787
-4.845521 -11.364663 2.515356
-4.370492 -11.394548 2.364918
-5.849089 -11.318435 2.364521
-5.335218 -11.330312 2.197883
-2.332469 -6.058012 0.769702
-2.654562 -5.137439 0.639645
-2.455886 -5.206797 0.579387
-2.297448 -4.869124 0.345521
-2.097828 -4.899838 0.291464
-1.923955 -4.981952 0.241392
-2.161932 -4.176353 0.174826
-2.083075 -4.408808 0.134500
-2.054223 -4.792444 0.094199
-2.042126 -3.941375 0.003022
-2.056074 -4.349301 -0.043159
-2.000125 -3.856357 -0.156257
-5.373201 -11.331450 3.172859
-4.892216 -11.388807 3.008541
-4.415039 -11.429015 2.848908
-5.883007 -11.298939 2.856087
-5.388294 -11.356625 2.686759
-4.884235 -11.358746 2.517351
-4.408265 -11.388410 2.366440
-5.903765 -11.338807 2.372550
-5.375022 -11.324568 2.199957
-2.329465 -5.995291 0.762637
-2.708865 -5.203327 0.648881
-2.448779 -5.150714 0.573979
-2.099788 -4.863128 0.289662
-1.942495 -4.984403 0.241798
-2.159023 -4.139575 0.173563
-2.022235 -4.246264 0.129730
-2.049477 -4.741149 0.093314
-2.098171 -4.019307 0.003086
-1.966174 -4.126321 -0.041006
-2.032312 -3.889174 -0.157839
-5.417555 -11.335031 3.178500
-4.927906 -11.375528 3.009013
-4.452205 -11.420861 2.850267
-5.938948 -11.321450 2.866369
-5.428174 -11.350627 2.689267
-4.923348 -11.353598 2.519546
-4.446755 -11.383977 2.368342
-5.935784 -11.315418 2.371455
-5.414841 -11.318687 2.202031
-2.268824 -5.786570 0.736968
-2.715120 -5.176508 0.646572
-2.518316 -5.255336 0.586496
-2.119482 -4.867648 0.290317
-1.958875 -4.981209 0.241934
-2.168459 -4.126739 0.173302
-2.024006 -4.216610 0.129013
-2.025258 -4.645935 0.091562
-2.075115 -3.945586 0.003034
-2.023413 -4.213112 -0.041930
-2.000938 -3.800682 -0.154496
-2.016644 -3.825654 -0.313712
-5.459879 -11.334077 3.182915
-4.969395 -11.375494 3.013023
-4.486153 -11.404429 2.849588
-5.981861 -11.318705 2.870307
-5.454055 -11.315420 2.684878
-4.960513 -11.343826 2.520743
-4.486700 -11.383068 2.371006
-5.976444 -11.308455 2.373827
-5.459808 -11.323314 2.206180
-2.299718 -5.812825 0.741207
-2.726345 -5.159365 0.645472
-2.515820 -5.209059 0.582190
-2.204666 -5.025908 0.500817
-2.108313 -4.801696 0.286768
-1.973779 -4.974247 0.241889
-2.200279 -4.156278 0.174826
-2.086561 -4.312962 0.132156
-2.035479 -4.630546 0.091382
-2.094233 -3.952456 0.003045
-1.986663 -4.104278 -0.040907
-2.045367 -3.856325 -0.157012
-2.011531 -3.787738 -0.311107
-5.497166 -11.322506 3.184387
-5.009756 -11.372646 3.016325
-4.519324 -11.386086 2.848455
-6.023437 -11.313219 2.873589
-5.522074 -11.367244 2.701181
-5.002013 -11.343797 2.524134
-4.527406 -11.383844 2.374050
-6.023123 -11.312630 2.378572
-5.504853 -11.327771 2.210328
-2.307969 -5.781763 0.738146
-2.769718 -5.202741 0.651959
-2.511758 -5.160164 0.577584
-2.196307 -4.965386 0.495456
-2.132736 -4.817118 0.288078
-1.989773 -4.970023 0.241979
-2.197031 -4.119528 0.173563
-2.053783 -4.212197 0.129261
-2.097079 -4.731226 0.093495
-2.075270 -3.887788 0.003000
-1.974693 -4.047835 -0.040405
-2.050595 -3.837692 -0.156509
-2.017496 -3.770996 -0.310239
-5.540399 -11.323004 3.189292
-5.051724 -11.373209 3.020570
-4.558217 -11.382114 2.850947
-6.065958 -11.309304 2.877308
-5.569822 -11.376598 2.707452
-5.043161 -11.342723 2.527326
-4.557923 -11.358968 2.371767
-6.061984 -11.301896 2.380214
-5.544779 -11.321444 2.212403
-2.286372 -5.677013 0.725665
-2.800699 -5.222248 0.655477
-2.546420 -5.190845 0.581890
-1.987801 -4.921286 0.239902
-2.172769 -4.044105 0.170665
-2.055675 -4.183448 0.128572
-2.013674 -4.505692 0.089160
-2.060192 -3.831201 0.002961
-1.984896 -4.037271 -0.040360
-1.972525 -4.409073 -0.088191
-2.071833 -3.848982 -0.157228
-2.042778 -3.790250 -0.312337
-5.582829 -11.321603 3.193707
-5.090565 -11.366525 3.022929
-4.593116 -11.368075 2.850947
-6.107583 -11.303518 2.880590
-5.609891 -11.369981 2.709960
-5.095975 -11.367435 2.536304
-4.600486 -11.364041 2.375762
-6.100836 -11.291031 2.381856
-5.599540 -11.345008 2.220354
-2.273873 -5.596372 0.716245
-2.803951 -5.190021 0.652509
-2.541609 -5.141087 0.577184
-3.057878 -6.800119 0.680388
-2.012315 -4.938293 0.241031
-2.212278 -4.087514 0.172782
-2.068944 -4.178017 0.128599
-2.034882 -4.515902 0.089485
-1.993674 -4.891083 0.045817
-2.091941 -3.861792 0.002990
-1.976408 -3.989050 -0.039938
-1.982754 -4.395710 -0.088044
-2.053620 -3.787262 -0.154963
-2.040120 -3.757669 -0.310166
-5.632205 -11.333940 3.202046
-5.130212 -11.361482 3.025760
-4.640471 -11.384597 2.858647
-6.145965 -11.291583 2.882340
-5.647360 -11.357970 2.711214
-5.135669 -11.362462 2.538698
-4.636072 -11.351691 2.376143
-6.142028 -11.284351 2.384411
-5.635197 -11.329539 2.220700
-2.278980 -5.559966 0.712477
-2.834590 -5.208458 0.655917
-2.586209 -5.191152 0.583693
-3.079960 -6.793427 0.680661
-2.008845 -4.886822 0.238818
-2.200412 -4.035961 0.170888
-2.081752 -4.171650 0.128599
-2.032598 -4.474135 0.088781
-1.995741 -4.853499 0.045522
-2.110485 -3.867645 0.002999
-2.007845 -4.021437 -0.040324
-1.984227 -4.363212 -0.087515
-2.081039 -3.809886 -0.156150
-2.084516 -4.170264 -0.211139
-2.048289 -3.745267 -0.309660
-5.680841 -11.344346 3.209895
-5.175110 -11.367801 3.031656
-4.677229 -11.374811 2.859779
-6.185738 -11.282086 2.884746
-5.681741 -11.339717 2.711005
-5.175380 -11.357353 2.541092
-4.672746 -11.341953 2.377094
-6.181346 -11.274075 2.386236
-5.667280 -11.306915 2.219663
-2.275158 -5.502475 0.706001
-2.851989 -5.202351 0.656247
-2.586499 -5.152072 0.580188
-2.145163 -4.688888 0.281963
-2.018853 -4.868640 0.238231
-2.187289 -3.982769 0.168919
-2.089152 -4.154527 0.128268
-2.014836 -4.857513 0.045617
-2.121377 -3.859400 0.002998
-2.012533 -4.000073 -0.040172
-2.000104 -4.362557 -0.087625
-2.078747 -3.778092 -0.155107
-1.993941 -3.958646 -0.200734
-2.060732 -3.740712 -0.309805
-5.727410 -11.350233 3.216517
-5.215231 -11.363352 3.034723
-4.713224 -11.363106 2.860459
-6.227399 -11.275868 2.888028
-5.717826 -11.324851 2.711632
-5.220426 -11.363682 2.546080
-4.709404 -11.332096 2.378045
-6.226363 -11.273993 2.390250
-5.710824 -11.307057 2.223120
-2.288588 -5.487221 0.704942
-2.903011 -5.257094 0.664272
-2.632834 -5.204485 0.586997
-2.287635 -4.964578 0.498818
-2.149502 -4.660523 0.280652
-2.038406 -4.873482 0.238773
-2.207237 -3.990030 0.169513
-2.089689 -4.124023 0.127524
-2.066300 -4.475196 0.089051
-2.131755 -3.850248 0.002996
-2.033838 -4.011718 -0.040351
-2.007187 -4.342787 -0.087351
-2.079670 -3.752467 -0.154316
-2.025970 -3.991705 -0.202725
-2.040259 -3.676813 -0.305029
-5.764841 -11.337793 3.217989
-5.253334 -11.354355 3.036610
-4.750695 -11.354883 2.862044
-6.269078 -11.269501 2.891309
-5.760969 -11.323816 2.715604
-5.264324 -11.367174 2.550469
-4.751360 -11.334798 2.381660
-6.261877 -11.256556 2.390615
-5.748614 -11.295628 2.224330
-2.290394 -5.444475 0.700350
-2.816217 -5.063148 0.640855
-2.619870 -5.139650 0.580588
-2.140086 -5.080234 0.450797
-2.201677 -4.735395 0.285567
-2.064221 -4.892977 0.240037
-2.201471 -3.950941 0.168139
-2.108240 -4.129166 0.127882
-2.026859 -4.354621 0.086775
-2.002615 -4.745560 0.044681
-2.160604 -3.874258 0.003019
-2.011633 -4.317576 -0.086967
-2.085328 -3.735598 -0.153885
-2.001363 -3.913428 -0.199060
-2.079267 -3.720162 -0.309153
-5.822142 -11.364056 3.230498
-5.291019 -11.344349 3.038261
-4.798384 -11.370766 2.869745
-6.326995 -11.291926 2.902029
-5.799697 -11.313920 2.717485
-5.307049 -11.367840 2.554259
-4.794141 -11.339157 2.385654
-6.313684 -11.268171 2.397184
-5.789084 -11.289332 2.226577
-2.295450 -5.409998 0.696817
-2.924040 -5.219238 0.661744
-2.652900 -5.165221 0.584393
-3.096369 -6.612622 0.666302
-2.133057 -5.020440 0.446069
-2.077267 -4.882026 0.239812
-2.192062 -3.905824 0.166504
-2.120441 -4.121790 0.127855
-2.024071 -4.313987 0.086089
-2.003066 -4.706270 0.044368
-2.163665 -3.851918 0.003007
-1.987025 -3.860463 -0.038952
-1.959840 -4.172920 -0.084174
-2.097758 -3.730924 -0.153957
-2.005124 -3.891285 -0.198246
-2.077949 -3.691168 -0.307272
-5.861871 -11.355617 3.233196
-5.327452 -11.331580 3.039204
-4.834772 -11.359576 2.870651
-6.375516 -11.297105 2.908374
-5.848292 -11.323008 2.723965
-5.348159 -11.364805 2.557252
-4.850855 -11.375869 2.396498
-6.365621 -11.279573 2.403753
-5.832734 -11.289019 2.230034
-2.319069 -5.419363 0.698937
-2.947365 -5.223227 0.663393
-2.654101 -5.128780 0.581189
-3.129819 -6.631009 0.669119
-2.117045 -4.940584 0.439549
-2.089083 -4.868285 0.239450
-2.219279 -3.926049 0.167656
-2.122496 -4.094853 0.127220
-2.093294 -4.426161 0.088455
-1.965037 -4.577891 0.043215
-2.160700 -3.819151 0.002987
-2.059166 -3.970636 -0.040127
-1.954665 -4.128933 -0.083408
-2.097868 -3.704470 -0.153130
-2.014291 -3.879796 -0.197974
-2.090739 -3.687378 -0.307489
-5.900261 -11.344461 3.235158
-5.361775 -11.314305 3.038968
-4.880357 -11.369751 2.876992
-6.422681 -11.299549 2.914062
-5.878489 -11.296338 2.721875
-5.395599 -11.374903 2.563237
-4.894266 -11.380775 2.400684
-6.414772 -11.285634 2.409228
-5.880075 -11.295534 2.234874
-2.333717 -5.407664 0.698348
-2.975163 -5.234900 0.666032
-2.687763 -5.155021 0.585094
-2.099645 -4.851768 0.238954
-2.218459 -3.896643 0.166690
-2.141990 -4.101613 0.127634
-2.104713 -4.415206 0.088365
-2.000126 -4.620477 0.043674
-2.142702 -3.760373 0.002946
-2.039849 -3.904034 -0.039517
-1.966892 -4.122015 -0.083389
-2.114175 -3.706698 -0.153490
-2.002107 -3.827568 -0.195622
-2.110450 -3.695671 -0.308719
-5.408609 -11.323231 3.045809
-4.921407 -11.369027 2.880616
-6.455379 -11.276404 2.913187
-5.929465 -11.309429 2.729399
-5.436389 -11.370673 2.566030
-4.929159 -11.365706 2.400684
-6.482582 -11.323923 2.421636
-5.924309 -11.295759 2.238504
-2.320180 -5.331278 0.689399
-2.984790 -5.214533 0.664602
-2.453942 -5.117475 0.517902
-2.104931 -4.823330 0.237870
-2.241339 -3.908890 0.167507
-2.108019 -4.006557 0.124877
-1.990289 -4.559332 0.043154
-2.174636 -3.789342 0.002974
-2.036446 -3.868557 -0.039221
-1.969129 -4.094336 -0.082951
-2.123048 -3.695861 -0.153310
-2.113823 -3.675345 -0.307562
-5.451331 -11.323221 3.050290
-4.958992 -11.360123 2.882201
-6.495305 -11.265845 2.915593
-5.971899 -11.305885 2.732953
-5.471248 -11.353941 2.566030
-4.977773 -11.382012 2.407342
-6.504524 -11.281836 2.416892
-5.965378 -11.289722 2.240924
-2.361267 -5.380512 0.696699
-3.040486 -5.274240 0.673398
-2.705846 -5.112929 0.582190
-2.104830 -4.783018 0.236199
-2.272810 -3.935745 0.168956
-2.158222 -4.071612 0.127110
-2.059863 -4.253728 0.085385
-2.178245 -3.768799 0.002963
-2.069387 -3.902045 -0.039624
-1.968598 -4.061284 -0.082404
-2.133376 -3.687600 -0.153238
-2.026024 -3.816093 -0.195667
-2.121089 -3.661938 -0.306983
-5.480954 -11.295951 3.047460
-4.998922 -11.356445 2.885145
-6.540617 -11.264428 2.920406
-6.016663 -11.306502 2.737551
-5.515045 -11.355612 2.570220
-5.017423 -11.377466 2.409625
-6.592426 -11.353656 2.436599
-6.004614 -11.280061 2.242653
-2.403884 -5.432269 0.704353
-3.042680 -5.240818 0.670319
-2.494890 -5.122018 0.519901
-2.214661 -4.998064 0.447047
-2.272315 -3.907158 0.168027
-2.145276 -4.017356 0.125621
-2.052731 -4.206056 0.084554
-2.011331 -4.531497 0.043007
-2.171184 -3.730122 0.002938
-2.048364 -3.833940 -0.038996
-1.978854 -4.050734 -0.082312
-2.146188 -3.683628 -0.153346
-2.032539 -3.800170 -0.195169
-2.126283 -3.645075 -0.306115
-5.542906 -11.334955 3.062555
-5.045989 -11.368653 2.892166
-6.582533 -11.256944 2.923688
-6.052709 -11.290576 2.738178
-5.549858 -11.338639 2.570220
-5.059884 -11.379063 2.413240
-6.635665 -11.347806 2.439701
-6.061071 -11.302383 2.250777
-2.371173 -5.314231 0.689988
-3.060751 -5.234891 0.670759
-2.809199 -5.230341 0.597511
-2.221854 -4.973047 0.445417
-2.068454 -4.623201 0.228930
-2.270150 -3.876024 0.166987
-2.126336 -3.952653 0.123801
-2.041797 -4.151290 0.083578
-2.174021 -3.708777 0.002926
-2.049691 -3.808266 -0.038799
-2.001429 -4.065275 -0.082732
-2.136744 -3.641687 -0.151872
-2.029499 -3.766653 -0.193767
-2.125837 -3.618755 -0.304451
-5.587535 -11.337945 3.067981
-5.083629 -11.359342 2.893752
-6.661106 -11.311530 2.943159
-6.094289 -11.284860 2.741314
-5.590254 -11.332983 2.572813
-5.099992 -11.375131 2.415713
-6.670947 -11.328242 2.439884
-6.090099 -11.273336 2.248703
-2.433504 -5.409267 0.703293
-3.093439 -5.253741 0.674387
-2.726749 -5.039678 0.576683
-2.584119 -5.223544 0.531806
-2.300815 -3.900888 0.168362
-2.135595 -3.940838 0.123636
-2.017225 -4.069757 0.082061
-2.179289 -3.691756 0.002918
-2.090438 -3.855582 -0.039346
-2.017447 -4.066281 -0.082878
-2.146890 -3.633394 -0.151800
-2.059630 -3.794651 -0.195531
-2.124741 -3.591614 -0.302714
-5.632667 -11.341638 3.073641
-5.128470 -11.365887 2.899414
-6.703243 -11.303630 2.946440
-6.136827 -11.280713 2.744867
-5.627614 -11.321044 2.574010
-5.137697 -11.365694 2.417045
-6.707676 -11.311105 2.440614
-6.146785 -11.295261 2.256827
-2.412350 -5.318574 0.692461
-3.112585 -5.249355 0.675047
-2.825049 -5.183302 0.594107
-2.303586 -3.878346 0.167693
-2.134743 -3.910578 0.122892
-2.092249 -4.188774 0.084590
-2.043843 -4.492769 0.042816
-2.202868 -3.705683 0.002934
-2.096026 -3.837742 -0.039230
-2.002638 -4.005520 -0.081765
-1.985354 -4.357135 -0.133578
-2.148317 -3.610472 -0.151117
-2.060720 -3.769031 -0.194536
-2.155658 -3.618496 -0.305536
-2.049068 -3.743528 -0.350488
-5.680049 -11.349505 3.080482
-5.168559 -11.361625 2.902358
-6.744395 -11.293902 2.949284
-6.184095 -11.284988 2.750510
-5.667586 -11.314239 2.576404
-5.184756 -11.376678 2.422752
-6.749404 -11.302292 2.443168
-6.178095 -11.270303 2.255617
